# .PCD v0.7 - Point Cloud Data file format
VERSION 0.7
FIELDS x y z intensity
SIZE 4 4 4 4
TYPE F F F F
COUNT 1 1 1 1
WIDTH 1711
HEIGHT 1
VIEWPOINT 0 0 0 1 0 0 0
POINTS 1711
DATA ascii
8.7159996 -0.861 -0.17299999 4
8.7030001 -0.86299998 -0.22 3
20.273001 -2.016 -0.625 2
19.966 -1.992 -0.727 3
20.028 -2.0039999 -0.83899999 1
8.6379995 -0.86699998 -0.40900001 3
8.6820002 -0.87099999 -0.168 3
8.6719999 -0.87199998 -0.215 3
8.6739998 -0.875 -0.26300001 3
8.6680002 -0.87699997 -0.31099999 3
8.6520004 -0.87800002 -0.35800001 4
8.6450005 -0.88 -0.405 4
8.6190004 -0.87699997 -0.162 4
8.6079998 -0.87800002 -0.20900001 2
8.6370001 -0.88300002 -0.257 3
8.618 -0.884 -0.30399999 2
8.6300001 -0.88800001 -0.352 4
8.6219997 -0.889 -0.39899999 5
8.6009998 -0.88700002 -0.15700001 4
8.5950003 -0.88800001 -0.204 3
8.6140003 -0.89300001 -0.25099999 3
8.5930004 -0.89300001 -0.29899999 2
8.6149998 -0.898 -0.34599999 3
8.6140003 -0.89999998 -0.39300001 5
8.6070004 -0.89899999 -0.152 4
8.6020002 -0.90100002 -0.199 4
8.6230001 -0.90499997 -0.24600001 4
8.6020002 -0.90600002 -0.294 2
8.6149998 -0.90899998 -0.34099999 3
8.6040001 -0.91100001 -0.38800001 6
8.618 -0.912 -0.147 3
8.6070004 -0.91299999 -0.19400001 4
8.6129999 -0.91600001 -0.241 4
8.6000004 -0.917 -0.28799999 2
8.6169996 -0.921 -0.336 4
8.6239996 -0.92400002 -0.38299999 8
8.6029997 -0.921 -0.141 2
8.6020002 -0.92299998 -0.18799999 4
8.6120005 -0.92699999 -0.235 4
8.5930004 -0.92699999 -0.28200001 3
8.6090002 -0.93099999 -0.33000001 4
8.6210003 -0.935 -0.377 7
8.5959997 -0.93099999 -0.13500001 2
8.6009998 -0.93400002 -0.182 3
8.6129999 -0.93800002 -0.229 2
8.5950003 -0.93800002 -0.27599999 2
8.6020002 -0.94099998 -0.32300001 2
8.6219997 -0.94599998 -0.37099999 5
10.359 -1.135 -0.156 2
10.37 -1.1390001 -0.212 2
10.379 -1.143 -0.26899999 2
8.6029997 -0.949 -0.27000001 3
17.392 -1.924 -0.64200002 0
17.372999 -1.927 -0.73500001 0
10.37 -1.149 -0.148 3
0 0 0 0
10.389 -1.156 -0.26100001 2
17.421 -1.943 -0.53500003 2
17.341 -1.939 -0.62599999 2
17.252001 -1.933 -0.71700001 4
0 0 0 0
15.504 -1.739 -0.294 3
15.943 -1.793 -0.389 3
17.299999 -1.949 -0.51800001 6
17.267 -1.95 -0.61000001 0
17.122999 -1.938 -0.69800001 6
15.728 -1.779 -0.20100001 4
15.381 -1.743 -0.28 4
15.65 -1.777 -0.36899999 6
17.211 -1.9579999 -0.50099999 12
17.110001 -1.951 -0.59100002 0
17.058001 -1.949 -0.68199998 13
14.612 -0.95099998 -0.32300001 8
14.608 -0.95599997 -0.405 8
14.357 -0.94400001 -0.47799999 9
14.378 -0.94999999 -0.56099999 7
14.251 -0.94700003 -0.63599998 9
14.231 -0.95099998 -0.71499997 11
14.315 -0.958 -0.31999999 12
14.307 -0.96200001 -0.40000001 11
14.139 -0.95599997 -0.47400001 13
14.088 -0.95700002 -0.55299997 8
14.1 -0.963 -0.63200003 10
14.095 -0.96799999 -0.71100003 10
14.115 -0.97000003 -0.31900001 16
14.101 -0.97399998 -0.39700001 11
14.092 -0.97799999 -0.47600001 11
14.054 -0.98100001 -0.55400002 7
14.055 -0.986 -0.63300002 10
13.688 -0.96499997 -0.69300002 12
14.092 -0.99400002 -0.32100001 13
13.668 -0.96899998 -0.38699999 7
13.555 -0.96600002 -0.46000001 10
13.457 -0.96399999 -0.53299999 10
13.209 -0.94999999 -0.597 10
13.183 -0.95300001 -0.66900003 11
13.555 -0.98100001 -0.31 11
13.215 -0.96100003 -0.37599999 10
13.169 -0.96200001 -0.44800001 13
13.151 -0.96499997 -0.52200001 14
13.145 -0.96899998 -0.59500003 9
13.144 -0.97399998 -0.66900003 7
13.17 -0.977 -0.303 11
13.144 -0.97899997 -0.375 13
13.139 -0.98299998 -0.44800001 15
13.131 -0.98699999 -0.52200001 15
13.136 -0.99299997 -0.59600002 12
13.088 -0.99299997 -0.667 5
13.156 -0.99900001 -0.303 12
13.142 -1.003 -0.37599999 14
13.135 -1.006 -0.449 14
13.131 -1.011 -0.523 13
13.091 -1.012 -0.59399998 11
12.531 -0.97299999 -0.63800001 5
13.153 -1.022 -0.303 11
13.127 -1.025 -0.375 9
13.081 -1.025 -0.447 10
13.076 -1.029 -0.52100003 10
12.087 -0.95599997 -0.54799998 6
11.899 -0.94499999 -0.60600001 6
12.499 -0.99299997 -0.28799999 7
12.265 -0.97899997 -0.34999999 6
11.92 -0.95499998 -0.40700001 8
11.827 -0.95200002 -0.47 5
11.79 -0.95300001 -0.53399998 6
11.658 -0.94599998 -0.59299999 7
11.823 -0.95999998 -0.27200001 5
11.673 -0.95200002 -0.333 5
11.632 -0.95200002 -0.396 10
11.64 -0.95700002 -0.46200001 6
11.634 -0.95999998 -0.52600002 7
11.631 -0.96399999 -0.59100002 7
11.629 -0.96399999 -0.266 5
11.632 -0.96799999 -0.33000001 8
11.612 -0.97100002 -0.39399999 12
11.618 -0.97500002 -0.46000001 7
11.621 -0.97899997 -0.52399999 9
11.628 -0.98400003 -0.58899999 6
11.613 -0.98299998 -0.264 5
11.626 -0.98799998 -0.32800001 10
11.614 -0.991 -0.39199999 11
11.617 -0.995 -0.458 10
11.622 -0.99900001 -0.52200001 7
11.621 -1.003 -0.58700001 6
11.628 -1.0039999 -0.26199999 6
11.621 -1.007 -0.32600001 9
11.625 -1.011 -0.38999999 8
11.624 -1.015 -0.456 8
11.615 -1.018 -0.51999998 4
11.606 -1.021 -0.583 4
11.605 -1.021 -0.259 5
11.628 -1.026 -0.324 7
21.812 -1.933 -0.72799999 1
21.806 -1.9400001 -0.85100001 1
18.402 -1.643 -0.81900001 7
14.583 -1.307 -0.73000002 4
20.289 -1.818 -0.44800001 2
21.669001 -1.948 -0.59799999 6
21.598 -1.949 -0.71499997 7
21.566999 -1.9529999 -0.83499998 7
18.191999 -1.654 -0.80500001 12
14.477 -1.321 -0.72000003 8
20.278 -1.85 -0.442 14
21.438999 -1.962 -0.58600003 14
21.389999 -1.964 -0.70200002 13
21.306 -1.9630001 -0.81900001 11
17.944 -1.659 -0.78799999 11
14.377 -1.334 -0.71100003 8
24.461 -0.86199999 -0.31099999 25
24.424 -0.86900002 -0.449 18
23.990999 -0.861 -0.57700002 19
23.905001 -0.866 -0.71399999 14
23.857 -0.87199998 -0.84799999 11
23.575001 -0.87 -0.972 10
23.663 -0.87900001 -0.322 23
23.655001 -0.88599998 -0.456 17
23.639 -0.89300001 -0.58999997 15
22.945999 -0.87400001 -0.70499998 12
23.032 -0.88599998 -0.83899999 10
21.881001 -0.84799999 -0.921 9
0 0 0 0
0 0 0 0
21.690001 -0.86000001 -0.55900002 23
21.462 -0.85799998 -0.67699999 24
21.176001 -0.85399997 -0.78799999 15
21.077999 -0.85699999 -0.90499997 9
21.106001 -0.86199999 -0.322 23
20.910999 -0.861 -0.43700001 19
21.093 -0.875 -0.56 26
21.040001 -0.88 -0.68000001 22
20.854 -0.87900001 -0.79299998 16
20.729 -0.88099998 -0.90600002 9
20.643999 -0.88099998 -0.331 15
20.655001 -0.889 -0.44800001 21
20.652 -0.89600003 -0.56400001 24
20.643999 -0.90200001 -0.68300003 19
0 0 0 0
20.091999 -0.89200002 -0.89300001 10
20.455999 -0.91100001 -0.34200001 12
19.966 -0.89600003 -0.447 19
19.712 -0.89200002 -0.55299997 24
19.316 -0.88 -0.653 28
19.309999 -0.88700002 -0.76200002 20
18.722 -0.866 -0.84500003 8
0 0 0 0
19.306999 -0.903 -0.44600001 19
0 0 0 0
19.256001 -0.91399997 -0.66399997 26
18.013 -0.861 -0.72299999 14
17.73 -0.85299999 -0.81199998 11
17.723 -0.85600001 -0.31999999 16
17.681 -0.86000001 -0.419 13
17.686001 -0.866 -0.51899999 17
17.662001 -0.87099999 -0.62 16
17.646 -0.87599999 -0.71899998 9
17.615999 -0.88099998 -0.81800002 10
17.638 -0.88499999 -0.329 18
17.632 -0.88999999 -0.42899999 17
17.618 -0.89499998 -0.528 12
17.580999 -0.89999998 -0.62800002 11
17.434 -0.898 -0.72100002 9
17.236 -0.89399999 -0.81 9
17.629 -0.917 -0.33899999 20
17.549 -0.91900003 -0.43599999 18
17.105 -0.90100002 -0.52200001 16
17.018999 -0.903 -0.61699998 15
16.871 -0.90100002 -0.70700002 15
16.837999 -0.90499997 -0.80000001 12
17.011 -0.917 -0.336 22
16.837 -0.91299999 -0.428 19
16.823999 -0.91799998 -0.52200001 22
16.806 -0.92299998 -0.61799997 17
16.809 -0.92900002 -0.713 15
16.780001 -0.93300003 -0.80599999 10
16.82 -0.93800002 -0.34099999 17
16.815001 -0.94300002 -0.435 17
16.808001 -0.949 -0.52999997 22
16.764 -0.95200002 -0.62400001 21
16.775999 -0.95899999 -0.71899998 20
16.452999 -0.94599998 -0.79799998 11
16.823 -0.97000003 -0.34799999 27
16.768 -0.972 -0.442 22
16.743 -0.977 -0.53500003 19
16.278 -0.95499998 -0.61299998 16
16.226999 -0.958 -0.70300001 15
15.688 -0.93199998 -0.76700002 12
0 0 0 0
15.708 -0.94 -0.41999999 15
15.263 -0.91900003 -0.49399999 14
15.22 -0.92199999 -0.579 18
15.194 -0.92500001 -0.66399997 16
14.944 -0.91500002 -0.73699999 9
15.193 -0.93199998 -0.32699999 15
14.889 -0.91900003 -0.40400001 11
14.723 -0.91399997 -0.48199999 9
14.649 -0.91399997 -0.56300002 11
14.691 -0.92199999 -0.64700001 10
14.692 -0.92699999 -0.72899997 10
14.637 -0.92500001 -0.31999999 12
14.61 -0.92900002 -0.40099999 8
14.62 -0.93400002 -0.48300001 6
14.602 -0.93800002 -0.56599998 6
14.604 -0.94400001 -0.648 7
14.47 -0.94 -0.72299999 7
57.478001 -0.43799999 0.35600001 41
57.484001 -0.45300001 0.026000001 39
57.479 -0.46700001 -0.303 42
57.479 -0.48300001 -0.639 35
49.326 -0.42699999 -0.83200002 19
41.582001 -0.37200001 -0.94 19
57.477001 -0.52899998 0.27399999 26
57.481998 -0.54500002 -0.055 32
57.486 -0.56 -0.38499999 38
57.483002 -0.57599998 -0.72100002 37
47.166 -0.48500001 -0.86299998 12
38.441002 -0.40599999 -0.92400002 10
57.499001 -0.62199998 0.19400001 49
57.501999 -0.63800001 -0.13500001 41
57.505001 -0.65399998 -0.46599999 40
57.507999 -0.67000002 -0.80199999 50
44.094002 -0.52499998 -0.86699998 15
37.639 -0.45899999 -0.95700002 13
57.52 -0.71700001 0.115 36
57.540001 -0.73199999 -0.213 30
54.737 -0.71200001 -0.51700002 25
54.097 -0.71899998 -0.82700002 9
42.381001 -0.574 -0.89099997 19
36.846001 -0.50999999 -0.986 22
54.631001 -0.76899999 0.037 15
52.417999 -0.75300002 -0.264 23
49.201 -0.72100002 -0.52999997 8
0 0 0 0
41.484001 -0.63099998 -0.926 14
36.771 -0.56999999 -1.0319999 33
47.408001 -0.74699998 -0.028999999 34
47.403999 -0.76099998 -0.30000001 30
45.401001 -0.74199998 -0.54799998 19
44.748001 -0.74400002 -0.801 25
38.867001 -0.65799999 -0.91900003 12
36.754002 -0.63300002 -1.079 3
44.645 -0.77999997 -0.083999999 35
44.429001 -0.78899997 -0.338 17
41.678001 -0.75300002 -0.55599999 24
41.678001 -0.76499999 -0.79900002 25
37.535 -0.69999999 -0.93400002 11
33.272999 -0.63 -1.0190001 12
38.696999 -0.74199998 -0.121 19
38.686001 -0.75400001 -0.34299999 30
38.695 -0.76499999 -0.56400001 16
38.671001 -0.77600002 -0.78899997 21
36.903 -0.75199997 -0.96399999 15
33.058998 -0.68400002 -1.053 2
38.519001 -0.80599999 -0.168 19
37.527 -0.796 -0.377 13
36.909 -0.79500002 -0.58200002 30
36.262001 -0.79100001 -0.78299999 13
35.702 -0.79000002 -0.97500002 10
30.454 -0.68300003 -1.006 7
35.676998 -0.80900002 -0.197 29
35.650002 -0.81900001 -0.40000001 28
0 0 0 0
0 0 0 0
33.150002 -0.792 -0.94400001 8
30.146 -0.73000002 -1.031 10
35.617001 -0.87 -0.237 16
33.294998 -0.824 -0.412 40
0 0 0 0
0 0 0 0
31.132999 -0.79900002 -0.921 7
30.08 -0.78200001 -1.062 2
0 0 0 0
31.093 -0.824 -0.41800001 30
30.964001 -0.83099997 -0.59299999 37
30.351 -0.824 -0.75800002 8
29.916 -0.82099998 -0.917 7
27.712999 -0.76899999 -1.008 7
30.364 -0.85000002 -0.26800001 21
29.754 -0.84200001 -0.43200001 28
29.667 -0.85000002 -0.60000002 26
0 0 0 0
0 0 0 0
27.563999 -0.815 -1.0319999 11
28.875 -0.861 -0.285 24
28.704 -0.86500001 -0.44600001 32
27.771999 -0.84600002 -0.58999997 19
27.497 -0.84600002 -0.74299997 15
26.965 -0.838 -0.88300002 5
26.771999 -0.83999997 -1.029 9
26.847 -0.84899998 -0.29100001 27
26.697001 -0.85299999 -0.44100001 27
26.726 -0.86199999 -0.59399998 17
26.636 -0.86799997 -0.74599999 11
26.624001 -0.87599999 -0.89700001 15
25.059999 -0.833 -0.98799998 12
0 0 0 0
0 0 0 0
0 0 0 0
25.146 -0.86500001 -0.72799999 8
24.847 -0.86299998 -0.861 8
24.441 -0.85699999 -0.986 15
54.491001 0.76999998 1.773 38
57.463001 0.801 1.5369999 27
57.436001 0.79000002 1.204 28
57.452 0.77899998 0.86500001 31
98.705002 1.3200001 0.91600001 12
101.34 1.337 0.35499999 11
54.525002 0.70899999 1.677 22
57.442001 0.736 1.433 27
57.423 0.72500002 1.101 31
57.477001 0.71399999 0.76300001 30
114.688 1.403 0.85900003 20
123.718 1.49 0.212 19
57.465 0.68099999 1.665 24
57.442001 0.67000002 1.332 27
57.459999 0.65799999 1 31
57.514999 0.64700001 0.662 9
138.59399 1.533 0.79400003 13
144.76601 1.574 -0.0060000001 10
57.464001 0.61299998 1.564 31
57.431999 0.60100001 1.2309999 27
57.448002 0.58899999 0.898 30
165.215 1.661 1.6109999 5
168.173 1.6569999 0.66799998 25
171.121 1.652 -0.30700001 45
57.455002 0.54299998 1.4630001 34
57.443001 0.52999997 1.131 27
57.464001 0.51899999 0.79900002 32
186.36099 1.645 1.4960001 16
207.601 1.789 0.46700001 4
57.523998 0.48300001 -0.20200001 3
57.445999 0.47 1.364 31
57.449001 0.458 1.031 38
57.490002 0.44600001 0.699 19
0 0 0 0
291.466 2.138 0.152 8
57.493 0.40900001 -0.30199999 33
57.436001 0.396 1.265 25
57.443001 0.384 0.93400002 27
188.44099 1.221 1.977 29
291.306 1.823 1.3430001 18
172.19901 1.039 -0.199 25
57.473999 0.33399999 -0.398 39
57.437 0.32100001 1.169 24
57.467999 0.308 0.838 30
290.65799 1.4960001 2.5599999 10
291.42401 1.4349999 0.85500002 150
174.71001 0.82099998 -0.495 15
57.449001 0.25600001 -0.49399999 34
57.452999 0.244 1.074 26
57.495998 0.23100001 0.74299997 25
290.479 1.099 2.075 33
291.20599 1.034 0.368 23
57.514999 0.19 -0.259 16
57.452 0.177 -0.58999997 45
57.48 0.164 0.97899997 49
57.509998 0.15000001 0.64700001 3
290.38901 0.69 1.592 22
171.82001 0.368 -0.064999998 16
57.487 0.109 -0.35299999 31
57.450001 0.094999999 -0.68400002 45
57.464001 0.082000002 0.88499999 25
188.453 0.226 1.816 19
254.847 0.243 0.98500001 8
171.19 0.121 -0.34299999 17
57.459999 0.026000001 -0.44600001 30
57.466999 0.012 -0.778 39
57.490002 -0.001 0.792 39
189.26601 -0.048999999 1.5190001 18
168.181 -0.085000001 0.37900001 13
57.527 -0.041999999 -0.206 5
57.455002 -0.056000002 -0.537 34
66.194 -0.082000002 -1.001 10
57.52 -0.083999999 0.70300001 16
147.25101 -0.25400001 0.95200002 9
142.30299 -0.28099999 0.098999999 9
57.514999 -0.12800001 -0.296 24
57.466 -0.142 -0.62699997 25
49.158001 -0.133 -0.81900001 15
57.576 -0.171 0.61400002 2
57.555 -0.185 0.28299999 21
57.512001 -0.2 -0.046999998 21
57.452 -0.214 -0.384 26
57.466999 -0.229 -0.71499997 36
0 0 0 0
57.504002 -0.25799999 0.52600002 38
57.495998 -0.273 0.19499999 34
57.486 -0.28799999 -0.13500001 43
57.459 -0.30199999 -0.47 38
57.487999 -0.317 -0.801 40
45.365002 -0.26199999 -0.89399999 18
57.498001 -0.347 0.44100001 42
57.477001 -0.36199999 0.11 38
57.485001 -0.377 -0.22 38
57.471001 -0.39199999 -0.55599999 28
66.181999 -0.46900001 -1.02 11
44.337002 -0.32499999 -0.93800002 2
30.018 0.81599998 1.887 29
31.197001 0.84500003 1.779 13
36.716 0.99000001 1.8789999 12
36.792999 0.98799998 1.665 25
37.361 1 1.474 11
37.928001 1.011 1.276 20
30.381001 0.81 1.851 27
33.456001 0.88800001 1.8430001 3
36.808998 0.97299999 1.813 23
37.606998 0.99000001 1.63 18
38.082001 0.99800003 1.429 14
38.398998 1.002 1.2180001 24
30.945999 0.80699998 1.825 21
0 0 0 0
37.648998 0.97299999 1.7819999 18
38.341999 0.98699999 1.587 14
38.501999 0.986 1.37 19
38.702999 0.98699999 1.152 15
31.235001 0.796 1.7819999 13
36.751999 0.93199998 1.882 32
38.702 0.97600001 1.757 12
39.157001 0.98299998 1.546 12
41.303001 1.0319999 1.39 5
41.278 1.026 1.149 23
33.707001 0.83700001 1.858 15
37.245998 0.92000002 1.836 11
38.865002 0.95499998 1.6900001 12
41.717999 1.02 1.567 24
41.717999 1.015 1.325 26
41.835999 1.012 1.085 27
36.723999 0.88700002 1.9529999 29
39.209999 0.94199997 1.857 14
41.945999 1.002 1.743 21
42.112999 1 1.501 27
42.117001 0.995 1.257 25
46.146999 1.084 1.109 4
36.793999 0.86199999 1.887 31
41.227001 0.95999998 1.874 15
42.136002 0.97500002 1.671 14
46.141998 1.062 1.556 5
46.158001 1.056 1.289 23
46.173 1.05 1.021 40
37.724998 0.85500002 1.862 17
42.285 0.95200002 1.842 14
46.137001 1.0319999 1.7410001 24
46.181 1.027 1.469 26
46.188999 1.02 1.201 32
46.217999 1.0140001 0.93400002 34
39.203999 0.85699999 1.86 13
45.452999 0.98699999 1.892 18
49.169998 1.061 1.762 20
49.785 1.066 1.49 20
52.425999 1.115 1.2640001 5
52.455002 1.108 0.96100003 29
41.991001 0.88300002 1.913 15
0 0 0 0
50.216999 1.041 1.704 30
52.439999 1.079 1.47 27
52.500999 1.072 1.1670001 15
57.441002 1.164 0.94300002 8
43.554001 0.87800002 1.902 17
49.957001 0.99900001 1.891 33
50.700001 1.005 1.625 21
57.452999 1.131 1.502 15
57.450001 1.1210001 1.169 36
57.458 1.112 0.83499998 34
45.500999 0.87599999 1.902 19
50.075001 0.95499998 1.801 34
53.974998 1.021 1.6289999 23
57.452999 1.077 1.3940001 37
57.451 1.068 1.061 33
57.473 1.059 0.72799999 33
48.473999 0.88700002 1.9349999 20
50.188 0.91000003 1.712 30
57.467999 1.0319999 1.627 27
57.433998 1.021 1.2869999 27
57.450001 1.012 0.954 34
57.515999 1.0039999 0.62199998 18
49.762001 0.861 1.893 37
51.644001 0.884 1.665 6
57.449001 0.97399998 1.5190001 31
57.432999 0.96399999 1.1799999 37
57.463001 0.954 0.84799999 28
72.678001 1.1950001 0.65200001 20
50.082001 0.81599998 1.813 36
54.536999 0.87800002 1.658 22
57.450001 0.91399997 1.413 27
57.438 0.90399998 1.074 30
57.493 0.89499998 0.74199998 26
81.670998 1.256 0.58099997 26
54.511002 0.82999998 1.873 4
57.445999 0.86299998 1.64 25
57.452 0.85299999 1.307 34
57.438999 0.84200001 0.96799999 36
87.663002 1.2690001 0.97000003 16
90.760002 1.298 0.47999999 11
19.26 0.583 1.789 7
21.065001 0.63700002 1.8329999 18
22.181 0.671 1.801 18
24.08 0.72799999 1.812 24
26.99 0.815 1.874 22
0 0 0 0
0 0 0 0
21.09 0.63999999 1.798 16
0 0 0 0
24.465 0.741 1.7970001 19
27.000999 0.81800002 1.826 24
29.868999 0.90399998 1.846 19
21.065001 0.64099997 1.881 17
21.622 0.65700001 1.804 16
24.066 0.73100001 1.867 30
26.933001 0.81699997 1.9299999 0
27.256001 0.82599998 1.795 21
30.247999 0.91600001 1.816 24
21.066999 0.64200002 1.8430001 18
22.169001 0.67400002 1.8099999 19
24.114 0.73299998 1.8279999 27
26.968 0.81900001 1.8839999 21
27.987 0.84899998 1.7920001 13
30.781 0.93199998 1.7920001 27
21.087999 0.64200002 1.806 17
24.011 0.73000002 1.916 1
24.396 0.741 1.804 20
26.995001 0.81900001 1.836 25
29.757 0.90100002 1.851 17
31.131001 0.94099998 1.755 19
21.563 0.65499997 1.807 17
24.066 0.73000002 1.876 29
25.039 0.759 1.8049999 10
27.139 0.82099998 1.796 20
30.167 0.91100001 1.8200001 22
0 0 0 0
22.145 0.671 1.814 19
24.101999 0.72899997 1.834 27
26.968 0.81400001 1.8940001 20
27.865 0.83999997 1.7920001 13
30.737 0.92500001 1.7970001 24
32.646 0.98100001 1.719 23
22.207001 0.67000002 1.778 15
24.351 0.73299998 1.807 19
27.006001 0.81099999 1.846 27
0 0 0 0
31.148001 0.93199998 1.763 18
32.709 0.977 1.6619999 21
24.073999 0.722 1.882 30
25.028999 0.74900001 1.8099999 11
27.101999 0.80900002 1.802 20
30.149 0.898 1.826 23
32.615002 0.97000003 1.785 20
32.754002 0.972 1.602 18
24.094999 0.71700001 1.8380001 29
26.962999 0.801 1.899 20
27.791 0.824 1.795 11
30.792 0.91100001 1.807 23
32.752998 0.96600002 1.7309999 23
33.138 0.97600001 1.559 19
24.4 0.72000003 1.8150001 21
26.996 0.79500002 1.85 26
29.999001 0.88099998 1.881 22
31.156 0.91299999 1.7690001 21
33.099998 0.96799999 1.687 31
33.386002 0.97299999 1.507 11
25.028 0.73199999 1.814 12
27.073 0.78899997 1.804 20
30.176001 0.87699997 1.834 25
0 0 0 0
33.347 0.96399999 1.635 19
33.949001 0.97899997 1.4680001 17
26.974001 0.77999997 1.903 23
29.990999 0.86400002 1.941 1
30.811001 0.88499999 1.814 23
33.361 0.95599997 1.767 26
33.957001 0.97000003 1.601 19
33.953999 0.96700001 1.403 18
27.002001 0.76999998 1.853 26
30.006001 0.85399997 1.8839999 27
31.166 0.884 1.776 21
33.955002 0.95999998 1.733 30
35.671001 1.005 1.613 1
33.952 0.954 1.3380001 15
27.08 0.76200002 1.807 21
30.209999 0.847 1.839 26
33.215 0.92799997 1.829 5
33.978001 0.94599998 1.669 21
0 0 0 0
0 0 0 0
29.964001 0.829 1.941 11
30.874001 0.85100001 1.8200001 22
33.833 0.93000001 1.798 24
36.631001 1.003 1.729 2
36.557999 0.99699998 1.513 11
36.691002 0.99699998 1.3049999 12
15.261 0.36300001 1.808 17
16.160999 0.38600001 1.8200001 18
16.599001 0.39700001 1.773 11
18.26 0.43900001 1.842 18
19.222 0.463 1.827 8
21.083 0.509 1.881 22
15.281 0.37400001 1.789 13
16.188 0.39700001 1.801 16
16.801001 0.41299999 1.771 10
18.268999 0.44999999 1.817 18
19.243999 0.47600001 1.802 7
21.084999 0.523 1.852 20
15.372 0.38600001 1.778 14
16.204 0.40799999 1.779 15
17.466 0.44 1.816 12
18.266001 0.46200001 1.791 13
21.030001 0.53299999 1.939 3
21.069 0.53500003 1.821 16
16.1 0.414 1.839 18
16.266001 0.419 1.762 13
18.176001 0.46900001 1.863 14
18.691999 0.48300001 1.8049999 10
0 0 0 0
21.190001 0.55000001 1.8 13
16.165001 0.42399999 1.822 19
16.497 0.43399999 1.763 10
18.23 0.47999999 1.842 12
19.205 0.50700003 1.826 8
21.073999 0.55699998 1.881 18
21.728001 0.57499999 1.814 17
16.188 0.433 1.8 16
16.788 0.44999999 1.7690001 9
18.238001 0.49000001 1.8150001 13
19.235001 0.51700002 1.8 8
21.068001 0.56800002 1.849 17
22.122 0.597 1.813 16
16.191 0.442 1.775 13
17.417 0.47600001 1.808 11
18.283001 0.5 1.791 12
0 0 0 0
21.073999 0.57800001 1.817 15
22.17 0.60900003 1.783 15
16.24 0.44999999 1.756 11
18.054001 0.50099999 1.846 10
18.764 0.52100003 1.809 9
21.006001 0.58399999 1.9 16
21.167 0.58999997 1.791 12
0 0 0 0
16.548 0.46599999 1.763 11
18.23 0.514 1.835 12
19.212999 0.542 1.822 9
21.042999 0.59399998 1.87 18
21.716 0.61400002 1.804 9
24.094 0.68099999 1.8609999 26
16.794001 0.479 1.761 9
18.240999 0.52100003 1.806 14
19.24 0.55000001 1.793 8
21.052999 0.602 1.837 18
22.148001 0.634 1.803 14
24.122 0.69099998 1.824 26
0 0 0 0
18.306 0.52899998 1.783 12
0 0 0 0
21.076 0.61000001 1.804 15
24.038 0.69599998 1.918 6
24.417 0.708 1.806 19
18.205 0.53200001 1.849 14
18.791 0.54900002 1.798 8
21.044001 0.61500001 1.891 17
21.427 0.62699997 1.798 15
0 0 0 0
24.996 0.73199999 1.807 12
18.250999 0.53899997 1.823 17
19.243999 0.56800002 1.809 8
21.058001 0.62199998 1.857 18
22.046 0.65100002 1.813 17
24.094999 0.71100003 1.841 27
26.971001 0.796 1.904 17
18.25 0.54299998 1.791 13
0 0 0 0
21.073999 0.62699997 1.822 17
22.179001 0.66000003 1.786 16
24.139999 0.71799999 1.803 22
26.981001 0.80299997 1.858 26
18.554001 0.55599999 1.789 11
21.017 0.63 1.903 17
21.139 0.63300002 1.791 15
0 0 0 0
24.673 0.73900002 1.8 14
27.014 0.80900002 1.814 23
19.201 0.579 1.817 8
21.056999 0.634 1.87 17
21.723 0.65399998 1.802 15
24.084999 0.72500002 1.855 29
26.945 0.81099999 1.918 9
27.424999 0.82499999 1.7920001 22
13.411 0.133 1.818 6
14.07 0.142 1.825 6
15.214 0.156 1.886 16
15.291 0.15899999 1.806 8
16.198999 0.17 1.8200001 16
16.874001 0.18000001 1.799 13
13.606 0.149 1.834 7
14.082 0.156 1.816 5
15.215 0.171 1.874 18
15.411 0.176 1.808 9
16.215 0.18700001 1.809 14
17.465 0.204 1.848 13
13.86 0.16599999 1.857 7
14.102 0.171 1.807 4
15.226 0.186 1.863 17
15.696 0.19400001 1.829 11
16.236 0.20299999 1.798 14
18.23 0.23100001 1.914 14
14.026 0.182 1.867 7
14.157 0.185 1.803 5
15.236 0.20100001 1.852 16
16.113001 0.215 1.863 17
16.271999 0.219 1.788 15
18.233 0.248 1.898 16
14.063 0.19599999 1.86 7
14.303 0.20100001 1.808 7
15.249 0.21600001 1.839 15
16.149 0.23100001 1.853 18
16.464001 0.23800001 1.794 15
18.24 0.266 1.882 16
14.085 0.20999999 1.849 11
14.577 0.219 1.829 11
15.256 0.23100001 1.826 13
16.162001 0.24699999 1.839 19
16.702 0.257 1.804 16
18.247999 0.28299999 1.8660001 15
14.091 0.223 1.836 11
15.176 0.242 1.8890001 14
15.267 0.245 1.812 12
16.167999 0.26199999 1.824 19
16.790001 0.273 1.7970001 13
18.243999 0.30000001 1.847 15
14.087 0.236 1.822 11
15.206 0.25600001 1.878 17
15.289 0.259 1.799 9
16.195999 0.27599999 1.8099999 19
16.885 0.28999999 1.789 11
18.254999 0.31600001 1.829 15
14.079 0.248 1.806 7
15.201 0.27000001 1.8609999 15
15.526 0.27700001 1.8099999 11
16.212999 0.29100001 1.795 15
0 0 0 0
18.263 0.33199999 1.811 12
14.099 0.26100001 1.793 7
15.218 0.28299999 1.846 14
16.046 0.30000001 1.853 15
16.233999 0.30500001 1.779 15
17.952 0.33899999 1.863 10
18.636 0.354 1.827 11
14.152 0.27399999 1.783 10
15.239 0.296 1.832 13
16.136 0.315 1.845 18
16.339001 0.32100001 1.772 14
18.211 0.359 1.869 12
18.875999 0.37400001 1.829 11
14.496 0.292 1.8099999 12
15.25 0.30899999 1.8150001 12
16.162001 0.329 1.829 19
16.5 0.33700001 1.77 12
18.233999 0.37400001 1.85 15
19.204 0.396 1.837 10
15.201 0.31799999 1.8789999 14
15.256 0.32100001 1.7970001 10
16.177999 0.34200001 1.811 18
16.789 0.35600001 1.781 13
18.257999 0.389 1.83 14
19.23 0.41100001 1.817 8
15.217 0.33000001 1.863 15
15.318 0.33399999 1.785 10
16.197001 0.354 1.793 16
17.304001 0.38 1.814 12
18.253 0.40200001 1.807 12
19.254999 0.426 1.795 6
15.232 0.34200001 1.845 14
15.613 0.352 1.8 12
16.232 0.36700001 1.776 16
17.657 0.40000001 1.8279999 12
18.34 0.417 1.7920001 11
0 0 0 0
15.249 0.35299999 1.827 16
16.138 0.375 1.839 18
16.305 0.38 1.763 14
18.243 0.426 1.865 15
18.773001 0.44 1.8099999 8
21.063 0.495 1.908 21
13.007 -0.1 1.841 11
13.612 -0.102 1.849 9
14.117 -0.103 1.8380001 14
15.203 -0.108 1.892 9
15.436 -0.107 1.8329999 7
16.183001 -0.109 1.831 9
13.052 -0.086000003 1.847 9
13.624 -0.086999997 1.851 9
14.107 -0.086999997 1.836 17
15.258 -0.090999998 1.898 10
15.391 -0.089000002 1.827 7
16.194 -0.090999998 1.831 9
12.966 -0.07 1.834 7
13.642 -0.071000002 1.852 8
14.103 -0.071000002 1.834 20
15.248 -0.074000001 1.895 12
15.469 -0.071999997 1.835 8
16.202999 -0.072999999 1.83 9
12.956 -0.055 1.831 7
13.654 -0.056000002 1.852 8
14.117 -0.055 1.834 24
15.246 -0.057 1.892 12
15.6 -0.055 1.848 11
16.243 -0.054000001 1.832 11
12.952 -0.041000001 1.8279999 7
13.654 -0.039999999 1.849 8
14.123 -0.039000001 1.832 25
15.224 -0.039999999 1.887 9
15.637 -0.037999999 1.849 11
16.219 -0.035999998 1.826 14
13.127 -0.026000001 1.85 8
13.636 -0.025 1.844 8
14.112 -0.023 1.8279999 22
15.226 -0.022 1.883 8
15.691 -0.02 1.852 11
16.222 -0.017999999 1.822 12
13.094 -0.012 1.842 7
14.047 -0.0099999998 1.896 10
14.122 -0.0070000002 1.825 15
15.239 -0.0049999999 1.881 8
16.132 -0.003 1.899 14
16.214001 0 1.817 8
13.125 0.0020000001 1.8430001 6
14.063 0.0049999999 1.8940001 11
14.118 0.0070000002 1.8200001 12
15.237 0.011 1.876 8
15.774 0.014 1.852 10
16.223 0.017000001 1.812 8
13.126 0.017000001 1.8380001 5
14.071 0.021 1.89 12
14.122 0.023 1.8150001 11
15.238 0.028000001 1.87 7
15.784 0.030999999 1.847 8
16.239 0.035 1.807 8
13.128 0.032000002 1.8329999 6
14.053 0.035999998 1.881 10
14.294 0.039000001 1.832 9
15.221 0.045000002 1.8609999 7
16.107 0.050000001 1.878 11
16.280001 0.052999999 1.8049999 8
13.133 0.046 1.8279999 6
13.584 0.050000001 1.812 8
14.561 0.056000002 1.859 8
15.224 0.061000001 1.855 7
16.17 0.068000004 1.877 15
16.351999 0.071000002 1.8049999 9
13.136 0.061000001 1.822 6
13.435 0.064000003 1.786 6
14.678 0.072999999 1.8660001 10
15.237 0.078000002 1.849 9
16.172001 0.086000003 1.869 18
16.400999 0.089000002 1.802 11
13.14 0.075000003 1.8150001 6
13.237 0.078000002 1.752 6
15.157 0.090999998 1.919 15
15.235 0.093999997 1.84 9
16.159 0.103 1.859 18
16.587999 0.108 1.813 14
13.133 0.089000002 1.807 6
13.623 0.094999999 1.795 8
15.203 0.108 1.916 15
15.244 0.111 1.832 7
16.159 0.12 1.849 19
16.736 0.127 1.819 14
13.14 0.103 1.799 6
14.087 0.113 1.848 9
15.211 0.124 1.9069999 16
15.246 0.127 1.822 8
16.167999 0.13699999 1.839 19
16.787001 0.145 1.814 14
13.159 0.117 1.793 5
14.071 0.127 1.836 7
15.219 0.14 1.898 15
15.264 0.14300001 1.814 7
16.181999 0.154 1.83 18
16.808001 0.162 1.804 15
13.872 -0.34799999 1.883 7
14.726 -0.366 1.9170001 4
15.258 -0.377 1.902 5
16.129999 -0.39500001 1.92 7
16.221001 -0.39399999 1.841 7
18.242001 -0.43900001 1.97 23
13.706 -0.33000001 1.87 7
14.4 -0.34400001 1.885 6
15.264 -0.361 1.913 6
15.786 -0.37099999 1.8890001 7
16.202999 -0.377 1.85 8
18.236 -0.421 1.9809999 17
13.602 -0.31400001 1.865 6
14.126 -0.32300001 1.858 5
15.255 -0.34599999 1.9220001 7
15.563 -0.34999999 1.872 7
16.193001 -0.361 1.859 8
17.628 -0.389 1.926 10
13.354 -0.294 1.839 5
14.079 -0.308 1.86 6
15.247 -0.33000001 1.9299999 8
15.344 -0.329 1.855 8
16.191999 -0.34400001 1.868 8
0 0 0 0
13.162 -0.27700001 1.8200001 6
14.071 -0.29300001 1.867 6
15.233 -0.31400001 1.936 8
15.295 -0.31200001 1.857 7
16.18 -0.32699999 1.875 8
16.740999 -0.33500001 1.847 6
13.132 -0.26199999 1.823 7
14.06 -0.278 1.873 6
15.147 -0.29699999 1.933 8
15.285 -0.296 1.864 6
16.173 -0.31 1.882 6
16.596001 -0.315 1.839 6
13.135 -0.248 1.829 7
14.063 -0.26300001 1.88 6
14.922 -0.27599999 1.911 6
15.276 -0.28 1.87 5
16.157 -0.292 1.887 5
16.478001 -0.29499999 1.8329999 6
13.169 -0.235 1.84 8
14.062 -0.248 1.886 7
14.779 -0.257 1.899 6
15.263 -0.26300001 1.874 5
16.145 -0.27399999 1.893 5
16.386999 -0.27500001 1.83 6
13.135 -0.22 1.84 9
14.072 -0.23199999 1.892 11
14.479 -0.236 1.8660001 9
15.237 -0.24600001 1.877 6
16.150999 -0.257 1.899 6
16.301001 -0.25600001 1.826 6
13.137 -0.205 1.845 10
14.072 -0.21699999 1.897 14
14.291 -0.21799999 1.846 8
14.975 -0.22499999 1.849 7
15.828 -0.235 1.8660001 8
16.233999 -0.237 1.823 7
13.141 -0.191 1.85 9
14.048 -0.20100001 1.898 12
14.263 -0.20100001 1.847 8
14.85 -0.206 1.8380001 9
15.68 -0.215 1.853 9
16.212999 -0.219 1.825 8
13.135 -0.176 1.852 8
14.062 -0.186 1.903 10
14.18 -0.184 1.839 7
14.924 -0.191 1.85 9
15.657 -0.197 1.853 10
16.205 -0.20100001 1.827 8
13.015 -0.16 1.8380001 10
13.604 -0.164 1.844 8
14.171 -0.168 1.841 7
15.113 -0.176 1.877 8
15.661 -0.18000001 1.857 10
16.204 -0.183 1.83 9
12.954 -0.14399999 1.831 10
13.654 -0.149 1.853 7
14.121 -0.15099999 1.836 8
15.207 -0.16 1.89 7
15.713 -0.162 1.865 8
16.194 -0.164 1.831 9
12.932 -0.12899999 1.83 14
13.592 -0.133 1.846 8
14.118 -0.13500001 1.837 10
15.203 -0.14300001 1.891 7
15.659 -0.14399999 1.86 7
16.202 -0.146 1.8329999 9
12.983 -0.115 1.8380001 10
13.618 -0.118 1.85 8
14.116 -0.119 1.8380001 12
15.203 -0.126 1.892 8
15.523 -0.125 1.844 8
16.198 -0.12800001 1.8329999 9
16.193001 -0.61299998 1.928 8
16.26 -0.61299998 1.848 6
18.224001 -0.685 1.973 11
18.690001 -0.69999999 1.921 7
21.045 -0.78500003 2.05 4
21.094 -0.78299999 1.942 19
16.155001 -0.602 1.944 6
16.216 -0.602 1.864 9
17.698 -0.65399998 1.939 11
18.278 -0.67299998 1.902 7
19.195999 -0.704 1.8940001 7
21.079 -0.76999998 1.967 22
15.73 -0.57599998 1.913 6
16.201 -0.59100002 1.883 8
17.061001 -0.62 1.891 11
18.238001 -0.66000003 1.921 12
19.186001 -0.69099998 1.9170001 7
21.08 -0.75599998 1.993 23
15.328 -0.55199999 1.8839999 6
16.193001 -0.57999998 1.902 8
16.482 -0.588 1.847 7
18.243 -0.648 1.944 18
19.17 -0.67799997 1.939 7
21.030001 -0.74000001 2.0139999 14
15.28 -0.54000002 1.896 7
16.184 -0.56900001 1.921 6
16.243 -0.56800002 1.839 8
18.233 -0.63499999 1.964 18
18.716999 -0.64899999 1.915 8
0 0 0 0
15.268 -0.528 1.913 8
16.177 -0.55699998 1.939 6
16.215 -0.55599999 1.855 9
0 0 0 0
18.294001 -0.62099999 1.893 10
19.266001 -0.65100002 1.8890001 6
15.258 -0.51700002 1.929 7
15.919 -0.53600001 1.926 6
16.211 -0.54299998 1.873 8
17.517 -0.58399999 1.927 6
18.271999 -0.60600001 1.911 17
19.235001 -0.63499999 1.9069999 7
15.259 -0.505 1.946 4
15.55 -0.51200002 1.898 6
16.195999 -0.52999997 1.8890001 6
16.677999 -0.54299998 1.852 5
18.268 -0.59200001 1.9299999 18
19.231001 -0.61900002 1.928 9
15.255 -0.493 1.962 5
15.29 -0.491 1.883 7
16.179001 -0.51599997 1.904 7
16.334999 -0.51899999 1.831 7
18.26 -0.57599998 1.948 18
19.120001 -0.60000002 1.936 10
15.225 -0.479 1.974 4
15.264 -0.477 1.895 9
16.177 -0.50300002 1.92 7
16.214001 -0.50099999 1.834 10
18.246 -0.56099999 1.965 18
18.771 -0.574 1.919 10
14.719 -0.45100001 1.923 4
15.258 -0.46399999 1.91 8
16.171 -0.48899999 1.9349999 7
16.198 -0.48699999 1.848 10
18.247999 -0.54500002 1.982 16
18.4 -0.54699999 1.898 9
14.317 -0.426 1.8839999 5
15.267 -0.45100001 1.925 5
15.875 -0.46599999 1.914 6
16.184 -0.472 1.8609999 9
17.618999 -0.51099998 1.9299999 11
18.254999 -0.52600002 1.9 7
14.097 -0.40700001 1.868 4
15.257 -0.43700001 1.938 4
15.525 -0.442 1.886 7
16.174999 -0.458 1.875 8
17.34 -0.48699999 1.915 11
18.245001 -0.509 1.915 9
14.084 -0.39399999 1.878 4
15.248 -0.42300001 1.949 6
15.31 -0.42199999 1.873 7
16.177 -0.44299999 1.888 9
16.573 -0.44999999 1.844 6
18.27 -0.493 1.932 13
14.067 -0.38 1.888 5
15.25 -0.40900001 1.962 7
15.28 -0.40700001 1.882 5
16.181999 -0.428 1.902 8
16.362 -0.42899999 1.8329999 7
18.237 -0.47499999 1.943 10
14.071 -0.36700001 1.899 6
15.218 -0.39300001 1.97 6
15.262 -0.39199999 1.891 4
16.181999 -0.412 1.914 7
16.240999 -0.41 1.832 7
18.246 -0.45699999 1.9579999 16
0 0 0 0
21.072001 -0.89700001 1.876 16
21.576 -0.91799998 1.807 14
21.534 -0.91500002 1.688 16
21.540001 -0.91500002 1.576 16
21.570999 -0.91500002 1.465 16
0 0 0 0
21.056 -0.89600003 1.911 23
21.605 -0.91900003 1.846 15
21.525 -0.91399997 1.724 14
21.594 -0.91600001 1.6160001 14
21.521999 -0.912 1.498 16
19.299999 -0.82099998 1.886 20
21.065001 -0.89499998 1.947 11
21.414 -0.90899998 1.8660001 14
21.582001 -0.91500002 1.765 13
21.624001 -0.91500002 1.655 14
21.534 -0.91000003 1.535 16
18.853001 -0.80000001 1.874 15
20.891001 -0.88599998 1.966 12
21.080999 -0.89200002 1.872 16
21.580999 -0.912 1.801 14
21.599001 -0.91100001 1.689 15
21.589001 -0.91000003 1.574 16
18.346001 -0.77600002 1.854 7
0 0 0 0
21.068001 -0.889 1.906 22
21.705999 -0.91399997 1.847 12
21.573999 -0.90700001 1.722 15
21.681999 -0.91000003 1.6160001 17
18.289 -0.77100003 1.878 7
19.309999 -0.81199998 1.88 12
21.061001 -0.884 1.9400001 11
21.544001 -0.903 1.868 15
21.715 -0.90799999 1.768 11
21.754 -0.90799999 1.656 16
18.282 -0.76700002 1.9069999 12
18.978001 -0.79400003 1.8789999 13
21.065001 -0.88 1.973 12
21.104 -0.88 1.863 16
21.764 -0.90499997 1.806 10
22.240999 -0.92299998 1.728 20
18.282 -0.76200002 1.936 37
18.707001 -0.778 1.881 8
20.372 -0.84600002 1.9400001 11
21.098 -0.87400001 1.896 24
21.993 -0.90899998 1.859 12
0 0 0 0
18.264 -0.75599998 1.9630001 26
18.421 -0.76099998 1.881 7
0 0 0 0
21.066999 -0.866 1.925 13
21.572001 -0.88499999 1.857 14
0 0 0 0
18.268 -0.75 1.9910001 16
18.297001 -0.75 1.897 10
19.264999 -0.78799999 1.8940001 8
21.054001 -0.85799998 1.956 9
21.136999 -0.86000001 1.852 12
0 0 0 0
0 0 0 0
18.275 -0.74199998 1.9220001 27
19.059 -0.77200001 1.903 8
21.052999 -0.85100001 1.988 23
21.120001 -0.85100001 1.882 22
22.247 -0.89399999 1.864 9
16.649 -0.67199999 1.865 9
18.271 -0.73500001 1.949 38
18.933001 -0.759 1.918 10
0 0 0 0
21.09 -0.84100002 1.91 16
21.704 -0.86299998 1.85 9
16.319 -0.65100002 1.852 7
18.261 -0.727 1.974 20
18.693001 -0.741 1.921 11
0 0 0 0
21.083 -0.83099997 1.939 14
21.204 -0.833 1.8380001 12
16.219999 -0.63999999 1.864 8
17.914 -0.704 1.962 11
18.290001 -0.71700001 1.906 10
19.243 -0.75099999 1.9 8
21.052999 -0.81999999 1.966 15
21.153 -0.82099998 1.863 12
16.204 -0.63099998 1.885 10
17.274 -0.67000002 1.9170001 11
18.257999 -0.70599997 1.928 11
19.231001 -0.741 1.925 8
21.054001 -0.80900002 1.995 23
21.136999 -0.80900002 1.89 12
16.209999 -0.62300003 1.908 9
16.535 -0.63300002 1.857 7
18.249001 -0.69599998 1.951 11
19.113001 -0.72600001 1.939 12
0 0 0 0
21.084999 -0.796 1.913 13
8.6400003 0.93800002 -0.412 3
8.4910002 0.921 -0.45300001 5
8.5579996 0.92799997 -0.50599998 5
8.6020002 0.93199998 -0.55800003 3
8.6309996 0.93400002 -0.60900003 3
8.6330004 0.93400002 -0.65899998 3
8.6339998 0.93000001 -0.41800001 3
8.5369997 0.91799998 -0.46200001 4
8.585 0.92199999 -0.51300001 4
8.6160002 0.92500001 -0.56599998 3
8.6499996 0.92799997 -0.61699998 3
8.6630001 0.92799997 -0.66799998 2
8.6269999 0.92000002 -0.42399999 3
8.5539999 0.912 -0.46900001 4
8.6210003 0.91799998 -0.52200001 4
8.6599998 0.921 -0.574 3
8.6870003 0.92299998 -0.62599999 3
12.102 1.285 -0.94099998 1
8.6420002 0.91299999 -0.43000001 3
8.6049995 0.90799999 -0.47799999 4
8.6709995 0.91399997 -0.53100002 3
8.6639996 0.91299999 -0.57999998 2
12.143 1.278 -0.88300002 1
12.058 1.268 -0.94599998 2
8.6309996 0.903 -0.435 3
8.6140003 0.89999998 -0.484 4
13.065 1.364 -0.80800003 0
12.182 1.271 -0.824 2
12.131 1.2640001 -0.88999999 2
12.034 1.252 -0.95099998 3
8.698 0.90100002 -0.44400001 4
8.6389999 0.89399999 -0.49000001 4
12.999 1.3430001 -0.81199998 3
12.161 1.255 -0.82999998 3
12.129 1.25 -0.89700001 4
12.012 1.237 -0.95599997 4
14.097 1.444 -0.72799999 4
14.027 1.4349999 -0.80400002 4
12.724 1.3 -0.80199999 4
12.17 1.242 -0.83700001 5
12.132 1.237 -0.90399998 5
12.026 1.225 -0.96399999 4
14.101 1.429 -0.736 6
14.047 1.421 -0.81300002 11
12.457 1.2589999 -0.792 6
12.168 1.228 -0.84399998 5
12.138 1.223 -0.91100001 5
11.987 1.207 -0.96799999 5
14.155 1.418 -0.74599999 8
14.029 1.403 -0.81900001 15
12.217 1.22 -0.78299999 6
12.16 1.2130001 -0.84899998 5
12.135 1.2079999 -0.91600001 5
11.784 1.1720001 -0.95700002 4
14.236 1.409 -0.75700003 9
14.018 1.385 -0.82499999 12
12.227 1.206 -0.78899997 6
12.159 1.198 -0.85500002 5
12.126 1.193 -0.921 5
11.68 1.147 -0.954 4
14.395 1.4069999 -0.77200001 15
13.126 1.28 -0.778 9
12.328 1.201 -0.801 5
12.162 1.183 -0.86000001 5
12.1 1.175 -0.92400002 5
11.538 1.119 -0.94700003 4
14.587 1.4069999 -0.78899997 19
13.126 1.2640001 -0.78399998 8
12.408 1.193 -0.81099999 5
12.083 1.16 -0.85900003 5
11.837 1.1339999 -0.90899998 5
11.57 1.107 -0.954 5
14.363 1.367 -0.78200001 19
12.98 1.233 -0.77999997 8
12.166 1.154 -0.79900002 6
11.93 1.13 -0.85299999 5
11.699 1.1059999 -0.90200001 4
11.611 1.096 -0.96100003 5
14.121 1.326 -0.773 11
12.74 1.194 -0.76899999 8
12.018 1.124 -0.79299998 6
11.706 1.0930001 -0.83999997 5
11.658 1.087 -0.903 6
11.613 1.081 -0.96499997 5
14.063 1.301 -0.77399999 7
11.737 1.084 -0.71200001 5
11.658 1.075 -0.773 5
11.621 1.069 -0.83700001 5
11.603 1.066 -0.90200001 4
11.58 1.062 -0.96499997 4
11.701 1.067 -0.64700001 6
11.676 1.063 -0.71100003 6
11.604 1.054 -0.77200001 5
11.599 1.052 -0.838 4
11.585 1.048 -0.903 4
11.583 1.046 -0.96799999 4
16.188 1.918 -0.52700001 21
16.179001 1.916 -0.61900002 16
15.267 1.808 -0.671 12
14.183 1.679 -0.70700002 7
13.548 1.604 -0.75300002 6
12.036 1.425 -0.73799998 3
16.193001 1.913 -0.54400003 19
16.160999 1.909 -0.63599998 14
15.238 1.8 -0.68699998 9
14.078 1.6619999 -0.71700001 6
13.175 1.556 -0.74599999 5
12.035 1.421 -0.75099999 5
16.212 1.91 -0.56300002 16
16.082001 1.8940001 -0.64999998 14
15.24 1.794 -0.70300001 15
14.059 1.655 -0.73100001 6
13.066 1.538 -0.755 3
12.125 1.427 -0.76999998 5
16.247999 1.908 -0.58099997 17
15.778 1.852 -0.65499997 14
15.208 1.785 -0.71799999 21
14.055 1.649 -0.74599999 5
12.801 1.502 -0.75300002 2
12.168 1.427 -0.78600001 5
16.34 1.9119999 -0.602 23
15.474 1.8099999 -0.65799999 15
15.195 1.776 -0.73400003 18
14.043 1.641 -0.75999999 4
12.268 1.433 -0.73400003 2
12.166 1.421 -0.79799998 4
16.239 1.892 -0.61500001 23
15.307 1.783 -0.667 13
14.642 1.705 -0.722 12
13.814 1.608 -0.76200002 5
12.162 1.415 -0.74000001 2
12.17 1.416 -0.81099999 4
16.197001 1.8789999 -0.63 22
15.264 1.77 -0.68099999 13
14.318 1.659 -0.72000003 7
13.651 1.581 -0.76599997 3
12.176 1.41 -0.75300002 2
12.173 1.409 -0.82300001 3
16.194 1.87 -0.64499998 16
15.246 1.7589999 -0.69499999 14
14.086 1.625 -0.72299999 3
13.164 1.518 -0.75199997 0
12.255 1.4119999 -0.77100003 2
12.167 1.402 -0.83499998 3
16.165001 1.8559999 -0.66000003 13
15.231 1.748 -0.70899999 20
14.086 1.6160001 -0.736 1
8.2889996 0.94999999 -0.48100001 3
12.272 1.4069999 -0.78299999 1
12.178 1.395 -0.847 1
15.72 1.795 -0.65700001 12
15.209 1.7359999 -0.722 19
8.5760002 0.97799999 -0.456 4
12.362 1.409 -0.73000002 1
8.6049995 0.98000002 -0.55699998 2
8.6059999 0.98000002 -0.60699999 2
15.564 1.767 -0.66500002 14
15.212 1.726 -0.73699999 13
14.063 1.594 -0.76099998 0
8.6190004 0.97600001 -0.51700002 4
8.6210003 0.97600001 -0.56599998 3
8.6210003 0.97600001 -0.616 3
15.301 1.726 -0.667 14
15.206 1.714 -0.75 9
8.4569998 0.95200002 -0.465 4
8.5979996 0.96799999 -0.523 4
8.6309996 0.97100002 -0.57499999 3
8.6239996 0.97000003 -0.62400001 3
15.286 1.7130001 -0.68000001 10
15.216 1.704 -0.764 0
8.4429998 0.94400001 -0.472 5
8.5939999 0.96100003 -0.52999997 4
8.6190004 0.963 -0.58099997 3
8.6280003 0.963 -0.63099998 4
15.27 1.699 -0.69199997 7
8.5860004 0.954 -0.43799999 3
8.5480003 0.949 -0.48500001 8
8.6049995 0.95499998 -0.53799999 4
8.6219997 0.95599997 -0.58899999 3
8.6280003 0.95599997 -0.63800001 4
8.6140003 0.95099998 -0.39700001 3
8.5229998 0.94 -0.442 4
8.5419998 0.94099998 -0.491 7
8.6009998 0.94700003 -0.54500002 3
8.625 0.949 -0.59600002 3
8.6280003 0.949 -0.64600003 5
8.632 0.94499999 -0.405 3
8.448 0.92400002 -0.44499999 4
8.5290003 0.93199998 -0.498 5
8.6160002 0.94099998 -0.55299997 3
8.6359997 0.94300002 -0.60299999 4
8.6379995 0.94199997 -0.653 4
16.787001 1.965 -0.23 17
16.781 1.966 -0.32600001 11
16.798 1.969 -0.42300001 18
16.254999 1.9069999 -0.50400001 21
16.277 1.91 -0.59799999 18
15.511 1.822 -0.65899998 14
16.778 1.972 -0.25 17
16.777 1.972 -0.34599999 16
16.774 1.973 -0.442 19
16.205 1.9069999 -0.52200001 21
16.200001 1.908 -0.61500001 17
15.293 1.802 -0.66799998 12
16.742001 1.974 -0.27000001 14
16.745001 1.975 -0.366 16
16.658001 1.966 -0.45899999 18
16.195 1.9119999 -0.54100001 19
16.166 1.91 -0.63300002 14
15.259 1.804 -0.685 10
16.471001 1.947 -0.285 12
16.51 1.9529999 -0.38 12
16.356001 1.9349999 -0.47099999 17
16.181999 1.916 -0.56 16
16.136 1.911 -0.65100002 11
15.241 1.806 -0.70300001 13
16.461 1.951 -0.30500001 11
16.444 1.95 -0.39899999 13
16.223 1.924 -0.486 17
16.167999 1.919 -0.579 17
15.558 1.847 -0.64600003 12
15.174 1.802 -0.71799999 17
16.436001 1.952 -0.324 11
16.531 1.964 -0.41999999 15
16.200001 1.925 -0.505 18
16.148001 1.92 -0.59799999 18
15.306 1.821 -0.65399998 16
15.042 1.79 -0.73000002 12
16.385 1.949 -0.34299999 12
16.363001 1.947 -0.43599999 13
16.177 1.926 -0.52399999 20
16.167999 1.925 -0.61799997 16
15.266 1.818 -0.671 15
14.152 1.687 -0.70300001 7
16.384001 1.952 -0.36199999 12
16.337 1.947 -0.45500001 15
16.177 1.928 -0.54299998 18
16.15 1.925 -0.63700002 13
15.248 1.818 -0.68900001 15
14.056 1.677 -0.71600002 5
16.357 1.95 -0.38100001 13
16.238001 1.936 -0.472 15
16.156 1.927 -0.56199998 16
15.744 1.878 -0.639 10
15.218 1.816 -0.70499998 16
14.042 1.676 -0.73199999 6
16.378 1.954 -0.40099999 14
16.209999 1.934 -0.49000001 15
16.152 1.927 -0.58099997 15
15.436 1.842 -0.64499998 16
15.096 1.802 -0.71799999 13
14.029 1.675 -0.74800003 6
16.371 1.9529999 -0.41999999 15
16.190001 1.932 -0.50800002 18
16.149 1.927 -0.60000002 16
15.265 1.822 -0.65600002 18
14.469 1.727 -0.70499998 9
13.798 1.648 -0.75199997 6
16.306 1.9450001 -0.43700001 15
16.174 1.929 -0.52700001 21
16.152 1.927 -0.61900002 15
15.254 1.8200001 -0.67400002 17
14.116 1.684 -0.704 6
13.482 1.609 -0.75 6
16.311001 1.944 -0.45699999 16
16.163 1.927 -0.54500002 18
16.153999 1.926 -0.63800001 12
15.256 1.819 -0.69099998 16
14.061 1.676 -0.71799999 5
13.085 1.5599999 -0.74299997 6
16.246 1.9349999 -0.47299999 16
16.160999 1.924 -0.56400001 16
15.725 1.872 -0.639 11
15.212 1.811 -0.70700002 17
14.041 1.6720001 -0.73299998 6
13.064 1.556 -0.75700003 5
16.214001 1.928 -0.491 18
16.16 1.921 -0.58200002 17
15.464 1.839 -0.64600003 15
15.136 1.8 -0.72000003 15
14.04 1.669 -0.74900001 6
13.045 1.551 -0.77100003 2
16.195 1.9220001 -0.509 20
16.173 1.919 -0.60100001 18
15.291 1.8150001 -0.65600002 15
14.581 1.73 -0.70999998 10
13.899 1.649 -0.75700003 6
12.548 1.489 -0.75599998 1
17.607 1.834 0.079000004 9
17.612 1.837 -0.02 6
8.6040001 0.89899999 -0.059 2
8.6000004 0.89899999 -0.109 2
8.6059999 0.90100002 -0.15800001 4
8.6210003 0.90399998 -0.207 4
17.622 1.855 0.061000001 15
17.598 1.855 -0.039000001 10
17.586 1.857 -0.139 7
17.614 1.862 -0.241 1
8.6070004 0.91100001 -0.167 3
8.6140003 0.91299999 -0.21600001 4
17.615 1.874 0.041999999 19
17.593 1.874 -0.057 15
17.584999 1.875 -0.15800001 11
17.586 1.878 -0.25999999 9
17.605 1.883 -0.36000001 0
8.6160002 0.92299998 -0.22499999 4
17.618999 1.893 0.023 23
17.601999 1.893 -0.077 18
17.610001 1.896 -0.177 14
17.594 1.897 -0.27900001 12
17.584999 1.899 -0.37900001 8
17.587999 1.902 -0.47999999 1
17.620001 1.911 0.0040000002 22
17.615999 1.9119999 -0.096000001 19
17.613001 1.914 -0.19599999 19
17.6 1.915 -0.29800001 15
17.591 1.9170001 -0.39899999 9
17.572001 1.9170001 -0.49900001 8
17.91 1.959 -0.015 19
17.693001 1.938 -0.116 13
17.631001 1.933 -0.21600001 20
17.6 1.932 -0.31799999 18
17.589001 1.933 -0.41800001 12
17.573999 1.934 -0.51899999 10
17.941999 1.979 -0.035 12
17.808001 1.966 -0.13600001 13
17.921 1.9809999 -0.23999999 18
17.6 1.948 -0.338 21
17.598 1.95 -0.43799999 18
17.566 1.949 -0.53799999 9
18.243 2.0280001 -0.056000002 10
18.111 2.016 -0.15899999 10
17.893999 1.994 -0.25999999 14
17.615999 1.965 -0.35800001 21
17.601 1.965 -0.458 24
17.586 1.966 -0.55900002 12
18.254999 2.0450001 -0.077 9
18.256001 2.0469999 -0.18099999 8
18.124001 2.0339999 -0.28400001 11
17.646 1.982 -0.37900001 19
17.641001 1.984 -0.47999999 22
17.59 1.98 -0.579 13
20.177 2.276 -0.108 4
18.254 2.0610001 -0.20200001 5
21.24 2.4000001 -0.35699999 0
17.673 1.999 -0.40000001 15
17.784 2.0139999 -0.50400001 13
17.614 1.997 -0.60000002 15
0 0 0 0
21.294001 2.4200001 -0.26100001 4
21.056 2.395 -0.37900001 5
20.636 2.349 -0.491 10
18.049999 2.0569999 -0.53299999 14
17.495001 1.9960001 -0.61699998 16
19.941999 2.2780001 -0.154 11
21.211 2.425 -0.285 7
20.855 2.3870001 -0.40000001 9
20.556 2.3540001 -0.514 11
17.959999 2.059 -0.55199999 13
16.802 1.928 -0.61199999 21
19.937 2.2909999 -0.177 9
21.128 2.4300001 -0.30899999 4
20.745001 2.3870001 -0.42199999 9
19.905001 2.293 -0.52100003 9
17.546 2.023 -0.56 11
16.576 1.9119999 -0.62400001 22
20.080999 2.3199999 -0.20299999 5
20.937 2.4200001 -0.331 0
20.629999 2.3870001 -0.44400001 8
19.298 2.234 -0.528 7
0 0 0 0
16.223 1.881 -0.63 21
16.804001 1.951 -0.189 15
20.357 2.365 -0.34599999 0
20.540001 2.3870001 -0.46700001 4
16.794001 1.9529999 -0.47999999 12
16.327 1.901 -0.56 19
16.181999 1.885 -0.648 21
16.795 1.9579999 -0.20900001 16
16.780001 1.9579999 -0.30500001 9
16.802999 1.962 -0.40200001 15
16.363001 1.9119999 -0.48699999 17
16.309 1.9069999 -0.579 17
16.091999 1.883 -0.66399997 14
12.117 0.98299998 0.21799999 12
12.052 0.98000002 0.149 10
11.844 0.96600002 0.079999998 9
11.618 0.94999999 0.012 9
11.641 0.95499998 -0.052999999 7
11.624 0.95599997 -0.118 8
12.242 1.0140001 0.213 14
12.217 1.0140001 0.14300001 11
12.143 1.011 0.074000001 9
12.038 1.005 0.0040000002 9
11.869 0.99400002 -0.061999999 6
11.984 1.006 -0.13 9
24.091999 2.0350001 0.403 11
24.087 2.04 0.266 12
24.089001 2.046 0.131 9
24.084999 2.0510001 -0.0060000001 13
24.093 2.0569999 -0.142 9
24.083 2.062 -0.278 11
24.122999 2.0780001 0.38600001 19
24.114 2.082 0.25 22
29.200001 2.527 0.138 2
28.983 2.5150001 -0.028999999 2
24.120001 2.098 -0.16 12
28.073 2.4489999 -0.345 1
29.652 2.6010001 0.45300001 1
29.360001 2.5810001 0.28299999 3
28.940001 2.5510001 0.115 5
28.579 2.5250001 -0.050000001 4
25.996 2.302 -0.192 1
27.754999 2.4649999 -0.36199999 9
20.610001 1.84 0.29899999 17
20.618 1.845 0.182 22
20.631001 1.85 0.066 21
20.618 1.853 -0.052000001 21
20.625999 1.859 -0.168 21
20.636999 1.864 -0.285 21
20.612 1.872 0.28299999 11
20.598 1.875 0.16599999 12
20.597 1.878 0.048999999 18
20.606001 1.883 -0.068000004 23
20.620001 1.8890001 -0.185 22
20.620001 1.893 -0.30199999 25
20.618999 1.903 0.266 2
20.596001 1.905 0.149 7
20.6 1.909 0.032000002 10
20.59 1.913 -0.085000001 12
20.622999 1.92 -0.20200001 19
20.621 1.924 -0.31900001 24
8.6660004 0.81199998 0.104 4
8.7049999 0.81800002 0.055 3
20.621 1.941 0.015 2
20.607 1.944 -0.103 6
20.650999 1.952 -0.22 9
20.605 1.952 -0.336 12
8.6309996 0.82099998 0.096000001 4
8.6470003 0.824 0.046999998 4
8.6730003 0.829 -0.001 3
21.063999 2.017 -0.124 0
21.089001 2.023 -0.244 6
20.664 1.987 -0.35600001 6
8.6049995 0.83099997 0.088 4
8.618 0.83399999 0.039999999 3
8.625 0.83600003 -0.0080000004 3
8.6420002 0.83899999 -0.057999998 2
8.6630001 0.84299999 -0.108 3
8.6969995 0.84799999 -0.15700001 3
8.6099997 0.84299999 0.081 4
8.6129999 0.84500003 0.032000002 4
8.6199999 0.847 -0.016000001 4
8.6059999 0.847 -0.066 2
8.6379995 0.852 -0.115 3
8.6619997 0.85600001 -0.16500001 4
8.618 0.85500002 0.071999997 4
8.6140003 0.85600001 0.024 4
8.6090002 0.85699999 -0.024 3
8.5970001 0.85799998 -0.074000001 2
8.6239996 0.86199999 -0.123 3
8.632 0.86400002 -0.17299999 3
8.6199999 0.866 0.064000003 4
8.6160002 0.86699998 0.015 4
8.6079998 0.86799997 -0.033 3
8.6260004 0.87099999 -0.082999997 3
8.6090002 0.87099999 -0.131 4
8.6169996 0.87300003 -0.18099999 3
8.6190004 0.87699997 0.056000002 4
8.6210003 0.87900001 0.0070000002 3
8.6029997 0.87800002 -0.041000001 2
8.6169996 0.88099998 -0.090999998 3
8.6129999 0.88200003 -0.14 4
8.6169996 0.884 -0.189 3
17.643 1.817 0.097000003 1
8.6120005 0.88800001 -0.001 3
8.599 0.88800001 -0.050000001 2
8.6029997 0.88999999 -0.1 3
8.6090002 0.89200002 -0.149 4
8.6199999 0.89499998 -0.198 3
0 0 0 0
18.355 0.94199997 0.33399999 14
18.298 0.94499999 0.23199999 15
18.336 0.95200002 0.12899999 15
18.414 0.96200001 0.028000001 13
18.400999 0.96700001 -0.072999999 13
17.636999 0.93599999 0.417 16
