# .PCD v0.7 - Point Cloud Data file format
VERSION 0.7
FIELDS x y z intensity
SIZE 4 4 4 4
TYPE F F F F
COUNT 1 1 1 1
WIDTH 1733
HEIGHT 1
VIEWPOINT 0 0 0 1 0 0 0
POINTS 1733
DATA ascii
57.455002 0.64300001 1.52 27
57.435001 0.634 1.187 27
57.467999 0.625 0.84799999 42
130.142 1.3940001 1.164 20
138.614 1.462 0.43399999 12
57.48 0.59799999 1.7460001 7
57.441002 0.588 1.411 27
57.449001 0.57800001 1.0779999 33
57.488998 0.56900001 0.73900002 31
153.157 1.489 1.08 10
168.14999 1.607 0.20999999 21
57.470001 0.54000002 1.638 25
57.449001 0.52999997 1.304 27
57.444 0.51999998 0.97000003 40
57.497002 0.50999999 0.63200003 9
174.252 1.517 0.903 25
174.177 1.4859999 -0.107 19
57.451 0.47999999 1.53 25
57.436001 0.47 1.196 28
57.459999 0.46000001 0.86299998 36
188.50301 1.476 1.72 26
218.439 1.671 0.72600001 10
171.653 1.281 -0.42500001 7
57.453999 0.419 1.424 25
57.444 0.40799999 1.09 32
57.473999 0.398 0.75700003 32
0 0 0 0
291.53699 1.908 0.42500001 14
57.539001 0.366 -0.249 6
57.432999 0.354 1.316 25
57.449001 0.34400001 0.98400003 27
57.500999 0.333 0.65100002 13
290.306 1.627 1.575 19
172.147 0.93300003 -0.061999999 5
57.500999 0.30000001 -0.354 31
57.455002 0.289 1.2130001 27
57.452 0.278 0.87900001 29
188.425 0.87699997 1.794 30
291.392 1.298 1.0549999 30
172.24001 0.73299998 -0.375 14
57.452999 0.233 -0.458 38
57.424 0.221 1.108 30
57.479 0.20999999 0.77600002 27
290.48099 1.007 2.2409999 40
291.388 0.954 0.53399998 42
57.554001 0.176 -0.228 1
57.451 0.16500001 -0.55900002 38
57.473 0.153 1.008 51
57.5 0.141 0.67500001 19
290.50101 0.65600002 1.728 39
173.827 0.35800001 0.012 26
57.506001 0.106 -0.329 22
57.463001 0.093999997 -0.662 44
57.448002 0.082000002 0.90600002 22
188.29201 0.23199999 1.882 35
0 0 0 0
171.49899 0.139 -0.287 21
57.469002 0.034000002 -0.428 35
57.458 0.022 -0.76099998 42
57.477001 0.0099999998 0.80800003 38
188.578 -0.0060000001 1.559 4
189.24899 -0.046999998 0.46799999 23
170.33501 -0.078000002 -0.579 13
57.459 -0.037999999 -0.52700001 29
57.472 -0.050999999 -0.86000001 40
57.501999 -0.063000001 0.70999998 30
170.431 -0.22499999 1.12 4
156.26801 -0.241 0.122 24
57.529999 -0.101 -0.292 16
57.443001 -0.113 -0.62400001 30
57.509998 -0.126 -0.958 10
57.543999 -0.139 0.61299998 4
132.70399 -0.35100001 0.648 6
132.66901 -0.38 -0.118 8
57.476002 -0.177 -0.389 26
57.460999 -0.19 -0.72100002 36
48.157001 -0.17 -0.88300002 19
26.997999 0.61199999 1.882 30
0 0 0 0
31.083 0.69999999 1.803 19
36.727001 0.82499999 1.913 32
39.612 0.88800001 1.832 14
45.990002 1.027 1.86 4
27.037001 0.60600001 1.832 25
30.1 0.67299998 1.864 23
31.224001 0.69499999 1.75 13
36.847 0.81800002 1.847 28
41.571999 0.92000002 1.841 14
46.098 1.017 1.773 26
27.745001 0.61400002 1.825 18
30.815001 0.68000001 1.846 21
36.702999 0.80699998 1.985 3
38.096001 0.83499998 1.834 12
42.352001 0.92500001 1.7920001 6
46.160999 1.0039999 1.684 23
30.000999 0.65399998 1.913 29
31.136999 0.676 1.804 17
36.731998 0.79500002 1.914 33
39.841999 0.85900003 1.839 13
45.692001 0.98199999 1.844 17
48.999001 1.049 1.692 5
30.155001 0.64700001 1.864 21
31.239 0.667 1.748 10
36.955002 0.78600001 1.852 24
41.980999 0.889 1.855 14
48.481998 1.023 1.86 11
49.52 1.041 1.612 19
31.011 0.653 1.855 18
36.708 0.76899999 1.9809999 18
38.445 0.80199999 1.851 13
44.078999 0.91600001 1.8609999 17
49.400002 1.022 1.798 19
50.153 1.033 1.534 20
31.209999 0.64300001 1.8049999 20
36.754002 0.75400001 1.911 32
39.181999 0.80000001 1.809 12
45.768002 0.93000001 1.842 17
50.098999 1.013 1.724 32
52.402 1.0549999 1.499 12
31.551001 0.63499999 1.763 8
37.124001 0.74299997 1.857 13
42.41 0.84500003 1.874 15
48.995998 0.97100002 1.875 22
50.316002 0.99199998 1.632 33
54.644001 1.072 1.454 5
36.721001 0.72000003 1.978 27
38.646999 0.75400001 1.8559999 13
44.389999 0.861 1.873 18
50.025002 0.96499997 1.8150001 36
51.243999 0.98299998 1.5599999 21
57.448002 1.096 1.414 33
36.763 0.69999999 1.9069999 32
40.681999 0.76999998 1.873 14
0 0 0 0
50.124001 0.93800002 1.7180001 34
57.459 1.069 1.635 12
57.449001 1.062 1.3 33
37.435001 0.69 1.867 13
42.868999 0.78600001 1.887 16
49.213001 0.89600003 1.88 22
50.203999 0.90799999 1.62 20
57.464001 1.033 1.521 31
57.445999 1.026 1.187 33
38.960999 0.69400001 1.8660001 13
44.573002 0.78899997 1.875 17
50.011002 0.87900001 1.813 33
54.119999 0.94400001 1.641 24
57.445 0.995 1.4069999 34
57.451 0.98799998 1.073 32
41.279999 0.708 1.896 16
47.125999 0.80199999 1.8890001 19
50.182999 0.847 1.719 28
57.473 0.963 1.628 23
57.451 0.95499998 1.294 31
57.439999 0.94800001 0.95999998 38
43.249001 0.70999998 1.9 17
49.417999 0.80500001 1.8839999 22
0 0 0 0
57.459 0.921 1.515 30
57.446999 0.91299999 1.1799999 31
57.453999 0.90600002 0.84600002 38
45.344002 0.71100003 1.903 19
50.026001 0.77700001 1.808 33
54.525002 0.83899999 1.653 25
57.445 0.87699997 1.402 32
57.445999 0.86900002 1.068 37
57.483002 0.861 0.73500001 33
47.529999 0.70700002 1.901 20
50.138 0.73900002 1.714 29
57.457001 0.83899999 1.63 19
57.443001 0.82999998 1.289 34
57.439999 0.82200003 0.95499998 38
87.68 1.242 0.949 14
18.254999 0.38999999 1.8150001 14
19.250999 0.41100001 1.801 7
21.103001 0.45100001 1.851 24
22.167999 0.47499999 1.813 17
24.097 0.51700002 1.83 21
26.982 0.579 1.892 26
18.329 0.398 1.791 12
0 0 0 0
21.106001 0.45899999 1.8150001 14
24.045 0.523 1.925 7
24.462999 0.53299999 1.816 18
27.007 0.58899999 1.847 34
18.92 0.417 1.816 8
21.082001 0.465 1.899 20
21.605 0.47600001 1.8200001 14
24.077999 0.53100002 1.885 10
25.030001 0.55299997 1.814 13
27.329 0.60399997 1.821 23
19.238001 0.42899999 1.812 8
21.091 0.47099999 1.863 25
22.158001 0.495 1.827 17
24.093 0.53799999 1.844 18
0 0 0 0
29.985001 0.67000002 1.9450001 13
0 0 0 0
21.087 0.47600001 1.825 17
22.184999 0.50099999 1.79 10
24.226999 0.54699999 1.811 19
26.997 0.61000001 1.8609999 28
30.004 0.67799997 1.893 29
21.073999 0.47999999 1.909 22
21.400999 0.48699999 1.813 14
24.058001 0.54799998 1.898 10
24.889 0.56699997 1.8150001 13
27.075001 0.616 1.817 22
30.136999 0.68599999 1.846 22
21.084999 0.484 1.8710001 25
22.101 0.50700003 1.832 16
24.1 0.55299997 1.857 13
26.965 0.61799997 1.9170001 16
27.716 0.63499999 1.809 20
30.816999 0.70599997 1.832 25
21.08 0.48699999 1.832 18
22.18 0.51200002 1.798 13
24.159 0.55699998 1.817 21
26.978001 0.62199998 1.869 27
29.986 0.69099998 1.902 30
31.08 0.71600002 1.79 20
21.212 0.49200001 1.804 14
0 0 0 0
24.775 0.574 1.817 13
27.038 0.62599999 1.822 22
30.084 0.69599998 1.852 24
31.198 0.72100002 1.739 14
21.952999 0.51099998 1.826 18
24.106001 0.56 1.864 12
26.954 0.62599999 1.927 10
27.622999 0.64099997 1.8099999 20
30.702999 0.71100003 1.8329999 22
36.738998 0.85100001 1.979 2
22.187 0.51700002 1.803 15
24.143999 0.56199998 1.821 20
26.985001 0.62699997 1.878 28
29.978001 0.69599998 1.9069999 29
31.08 0.72000003 1.796 20
36.723 0.85000002 1.909 32
24.049999 0.56 1.909 10
24.707001 0.574 1.816 12
27.040001 0.62800002 1.83 22
30.056999 0.69700003 1.8559999 25
31.208 0.722 1.745 14
36.797001 0.85000002 1.8430001 28
24.103001 0.56 1.867 12
26.966 0.625 1.931 8
27.636999 0.63999999 1.818 19
30.66 0.70899999 1.834 22
33.803001 0.77999997 1.826 14
37.722 0.86900002 1.817 18
24.142 0.55900002 1.824 21
27 0.62400001 1.882 28
29.988001 0.69199997 1.915 29
31.080999 0.71499997 1.8 21
36.716999 0.84299999 1.9119999 31
39.493999 0.90499997 1.827 13
24.684999 0.56800002 1.817 13
27.034 0.62099999 1.832 23
30.073 0.68900001 1.862 24
31.202 0.71399999 1.747 14
36.816002 0.83999997 1.847 29
41.349998 0.94099998 1.834 15
26.961 0.616 1.933 12
27.620001 0.63 1.818 21
30.743999 0.699 1.844 24
36.728001 0.833 1.985 2
37.806 0.85600001 1.823 14
42.144001 0.95099998 1.786 17
15.218 0.171 1.874 18
15.363 0.17399999 1.802 10
16.209999 0.185 1.807 15
17.41 0.20100001 1.8380001 12
18.271 0.213 1.822 16
19.249001 0.227 1.808 11
15.234 0.184 1.857 18
16.084 0.19599999 1.867 14
16.24 0.2 1.79 15
17.913 0.222 1.868 13
18.339001 0.229 1.806 12
0 0 0 0
15.243 0.197 1.839 16
16.142 0.20999999 1.853 19
16.396 0.215 1.786 15
18.239 0.241 1.8789999 16
18.768999 0.249 1.825 11
21.070999 0.28200001 1.927 21
15.264 0.20900001 1.822 16
16.171 0.223 1.835 18
16.767 0.233 1.8049999 17
18.212999 0.25400001 1.853 13
19.202999 0.27000001 1.842 12
21.087 0.29899999 1.9 21
15.284 0.221 1.803 13
16.181 0.235 1.8150001 20
16.809999 0.24600001 1.7869999 13
18.226 0.26800001 1.829 13
19.259001 0.285 1.821 19
21.093 0.31400001 1.872 20
15.419 0.234 1.798 11
16.205999 0.248 1.795 16
17.542999 0.27000001 1.841 11
18.250999 0.28200001 1.807 13
20.993 0.32600001 1.956 8
21.079 0.329 1.842 15
16.062 0.25600001 1.85 16
16.281 0.25999999 1.78 12
18.198999 0.29300001 1.8839999 14
18.652 0.301 1.8200001 12
0 0 0 0
21.107 0.34400001 1.814 14
16.15 0.26800001 1.837 19
16.488001 0.27500001 1.779 12
18.222 0.30500001 1.86 14
19.164 0.322 1.842 14
21.058001 0.35600001 1.902 17
21.636999 0.36700001 1.8279999 18
16.18 0.27900001 1.817 21
16.780001 0.29100001 1.786 11
18.263 0.31799999 1.837 16
19.225 0.33500001 1.8200001 13
21.09 0.36899999 1.874 25
22.183001 0.38999999 1.842 21
16.212 0.28999999 1.796 17
17.389 0.31200001 1.825 11
18.26 0.329 1.809 12
19.264999 0.34799999 1.794 7
21.093 0.382 1.842 19
22.179001 0.403 1.808 15
16.247 0.30000001 1.775 15
18.066 0.33500001 1.868 10
18.677999 0.347 1.822 12
0 0 0 0
21.113001 0.39500001 1.811 14
24.052 0.45100001 1.923 10
16.42 0.31299999 1.768 13
18.219 0.34799999 1.855 14
19.179001 0.36700001 1.841 12
21.077 0.40400001 1.898 24
21.634001 0.41600001 1.822 16
24.07 0.46399999 1.887 18
16.809 0.329 1.783 13
18.266001 0.35800001 1.831 16
19.237 0.37799999 1.8150001 8
21.087 0.41600001 1.865 25
22.136999 0.43700001 1.829 18
24.094 0.477 1.85 18
17.379999 0.34900001 1.816 12
18.275999 0.36700001 1.802 12
20.993 0.42300001 1.947 4
21.099001 0.426 1.831 20
22.193001 0.449 1.7970001 10
24.153999 0.48899999 1.816 20
18.097 0.37099999 1.8609999 13
18.702 0.384 1.813 11
21.013 0.433 1.914 16
21.171 0.43700001 1.803 12
0 0 0 0
24.648001 0.50999999 1.811 18
18.256001 0.382 1.846 18
19.229 0.403 1.832 8
21.091 0.44299999 1.886 20
21.789 0.45899999 1.819 15
24.087999 0.50700003 1.87 12
25.041 0.528 1.799 12
13.142 -0.064000003 1.803 7
14.097 -0.066 1.853 15
15.057 -0.068000004 1.892 8
15.259 -0.066 1.829 9
16.181999 -0.067000002 1.847 10
16.806 -0.067000002 1.822 18
13.163 -0.048999999 1.799 7
14.095 -0.050000001 1.845 19
15.211 -0.052000001 1.903 8
15.271 -0.048999999 1.821 10
16.211 -0.050000001 1.84 14
16.819 -0.048999999 1.813 16
13.249 -0.035 1.803 7
14.111 -0.035 1.8380001 25
15.221 -0.035 1.895 8
15.309 -0.032000002 1.816 10
16.209 -0.032000002 1.83 14
0 0 0 0
13.494 -0.021 1.827 8
14.113 -0.018999999 1.829 22
15.228 -0.017999999 1.886 8
15.538 -0.016000001 1.8329999 12
16.197001 -0.014 1.818 10
18.219999 -0.013 1.941 17
13.637 -0.0060000001 1.837 9
14.114 -0.0040000002 1.8200001 14
15.246 -0.0020000001 1.878 8
15.707 0 1.842 11
16.226999 0.0020000001 1.8099999 8
18.232 0.0049999999 1.929 22
14.064 0.0080000004 1.885 12
14.122 0.0099999998 1.8099999 11
15.25 0.013 1.867 7
15.811 0.016000001 1.8430001 9
16.249001 0.018999999 1.8 8
18.236 0.024 1.915 28
14.069 0.023 1.874 13
14.442 0.025 1.84 10
15.241 0.028999999 1.854 7
16.014 0.033 1.854 10
16.375999 0.035999998 1.801 9
18.243999 0.043000001 1.902 28
14.066 0.037 1.863 10
14.66 0.041000001 1.8559999 10
15.246 0.045000002 1.842 7
16.18 0.050000001 1.859 16
16.524 0.054000001 1.804 11
18.25 0.061999999 1.887 26
13.587 0.050000001 1.7869999 9
15.21 0.057999998 1.9119999 15
15.265 0.059999999 1.831 7
16.171 0.066 1.844 15
16.771 0.071000002 1.816 16
18.257 0.079999998 1.872 20
13.616 0.064000003 1.779 8
15.222 0.072999999 1.9 18
15.274 0.075999998 1.818 6
16.202999 0.082999997 1.8329999 14
16.812 0.088 1.8049999 16
18.261999 0.097999997 1.855 17
14.095 0.079999998 1.8279999 10
15.215 0.089000002 1.885 18
15.365 0.092 1.814 6
16.184 0.097999997 1.8150001 12
17.146 0.107 1.824 12
18.278999 0.116 1.839 15
14.082 0.093999997 1.812 6
15.237 0.103 1.872 13
15.692 0.109 1.837 10
16.186001 0.114 1.799 9
17.566 0.126 1.851 11
18.285 0.134 1.821 12
14.165 0.108 1.808 5
15.248 0.118 1.858 12
16.124001 0.127 1.8710001 16
16.259001 0.13 1.79 9
18.222 0.148 1.901 16
18.641001 0.154 1.837 11
14.605 0.125 1.849 9
15.261 0.132 1.8430001 14
16.157 0.142 1.857 20
16.410999 0.146 1.789 12
18.226 0.16500001 1.882 15
18.867001 0.17299999 1.839 14
15.216 0.14399999 1.909 14
15.265 0.146 1.826 13
16.177 0.15700001 1.841 20
16.754 0.164 1.808 16
18.247 0.18099999 1.863 14
19.267 0.19400001 1.8559999 20
15.226 0.15800001 1.893 18
15.267 0.16 1.809 10
16.184 0.171 1.823 19
16.801001 0.18000001 1.794 16
18.257 0.197 1.8430001 15
19.261999 0.20999999 1.8329999 18
13.133 -0.30399999 1.835 6
14.068 -0.32300001 1.886 6
15.101 -0.34299999 1.9400001 5
15.256 -0.34400001 1.872 8
16.184999 -0.36199999 1.895 7
16.304001 -0.361 1.818 7
13.13 -0.289 1.8380001 6
14.058 -0.30700001 1.888 6
14.619 -0.31600001 1.881 7
15.26 -0.32699999 1.875 7
16.173 -0.34299999 1.897 7
16.250999 -0.34099999 1.814 9
13.129 -0.27399999 1.839 7
14.058 -0.29100001 1.89 6
14.488 -0.29699999 1.865 8
15.268 -0.31 1.878 5
16.163 -0.32499999 1.897 6
16.245001 -0.32300001 1.816 7
13.129 -0.25999999 1.841 7
14.046 -0.27500001 1.8890001 6
14.463 -0.28 1.863 7
15.261 -0.292 1.878 5
16.150999 -0.30599999 1.897 5
16.254999 -0.30500001 1.818 5
13.154 -0.245 1.845 8
14.04 -0.25799999 1.8890001 8
14.501 -0.264 1.869 7
15.255 -0.27500001 1.878 5
16.15 -0.28799999 1.897 5
16.257 -0.28600001 1.818 5
13.144 -0.23 1.8430001 9
14.058 -0.243 1.892 12
14.303 -0.244 1.8430001 8
15.236 -0.257 1.876 6
16.157 -0.26899999 1.898 6
16.253 -0.26800001 1.817 5
13.15 -0.215 1.844 10
14.071 -0.227 1.893 15
14.255 -0.227 1.836 8
14.978 -0.236 1.8430001 7
15.858 -0.24600001 1.8609999 7
16.236 -0.249 1.814 7
13.145 -0.2 1.842 9
14.05 -0.20999999 1.888 12
14.294 -0.211 1.84 8
14.899 -0.21699999 1.831 9
15.787 -0.227 1.851 8
16.237 -0.23 1.812 8
13.136 -0.184 1.839 8
14.072 -0.19400001 1.8890001 10
14.305 -0.19499999 1.839 8
15.007 -0.20100001 1.842 10
15.856 -0.20999999 1.857 8
16.24 -0.212 1.809 8
13.074 -0.168 1.8279999 9
14.003 -0.177 1.877 8
14.52 -0.18099999 1.864 7
15.193 -0.186 1.862 9
16.086 -0.19400001 1.88 9
16.242001 -0.193 1.806 10
13.081 -0.153 1.826 10
14.054 -0.162 1.881 8
14.638 -0.16599999 1.875 9
15.22 -0.169 1.862 9
16.157 -0.177 1.8839999 9
16.348 -0.176 1.814 11
13.088 -0.138 1.823 10
14.08 -0.146 1.88 9
14.673 -0.149 1.876 10
15.223 -0.152 1.857 8
16.153 -0.15800001 1.8789999 9
16.452 -0.15800001 1.8200001 10
13.125 -0.123 1.824 10
14.08 -0.13 1.876 11
15.188 -0.13699999 1.936 12
15.246 -0.13500001 1.855 7
16.150999 -0.14 1.873 9
16.525999 -0.14 1.822 8
13.138 -0.108 1.821 12
14.081 -0.114 1.8710001 12
15.213 -0.12 1.934 11
15.246 -0.117 1.849 8
16.113001 -0.121 1.862 8
16.768 -0.123 1.842 11
13.152 -0.093999997 1.817 13
14.08 -0.097999997 1.865 14
14.792 -0.1 1.874 8
15.246 -0.1 1.842 9
16.128 -0.103 1.857 8
16.789 -0.104 1.837 16
13.154 -0.079000004 1.812 10
14.082 -0.082000002 1.858 14
14.952 -0.083999999 1.887 8
15.255 -0.082999997 1.836 9
16.167 -0.085000001 1.853 8
16.795 -0.086000003 1.829 18
14.736 -0.579 1.924 5
15.262 -0.597 1.909 9
16.177 -0.63 1.9349999 6
16.205999 -0.62800002 1.848 8
17.922001 -0.69099998 1.9450001 10
18.311001 -0.70300001 1.887 7
14.235 -0.54699999 1.872 7
15.258 -0.58399999 1.9220001 9
15.89 -0.60500002 1.914 6
16.200001 -0.61400002 1.8609999 9
0 0 0 0
18.267 -0.685 1.898 8
14.09 -0.52899998 1.865 8
15.267 -0.57099998 1.936 7
15.642 -0.58099997 1.897 6
16.195999 -0.59899998 1.874 8
16.781 -0.61699998 1.849 9
18.261999 -0.66799998 1.913 15
14.113 -0.51700002 1.8789999 9
15.251 -0.55599999 1.946 6
15.344 -0.55599999 1.873 6
16.191 -0.58399999 1.886 7
16.535 -0.59299999 1.835 6
18.257 -0.65100002 1.926 21
14.077 -0.50300002 1.885 8
15.249 -0.542 1.957 6
15.284 -0.54000002 1.877 6
16.188 -0.56800002 1.898 6
16.341 -0.56999999 1.825 6
18.247999 -0.63300002 1.938 21
14.07 -0.48899999 1.895 7
15.207 -0.52499998 1.9630001 5
15.273 -0.52499998 1.887 8
16.174999 -0.55199999 1.9069999 6
16.243 -0.551 1.826 8
18.247 -0.616 1.95 16
14.056 -0.47499999 1.902 7
14.813 -0.49700001 1.9220001 4
15.267 -0.50999999 1.896 8
16.173 -0.537 1.918 7
16.212 -0.53500003 1.8329999 9
18.243 -0.59799999 1.962 15
13.929 -0.45699999 1.8940001 7
14.599 -0.47600001 1.904 2
15.255 -0.49399999 1.904 9
16.166 -0.51999998 1.927 7
16.200001 -0.51800001 1.841 10
18.231001 -0.579 1.971 13
13.646 -0.433 1.864 5
14.242 -0.44999999 1.8660001 4
15.267 -0.479 1.915 7
16.038 -0.5 1.921 7
16.200001 -0.50099999 1.85 10
18.23 -0.56099999 1.9809999 15
13.497 -0.41499999 1.851 6
14.119 -0.43099999 1.857 4
15.257 -0.463 1.9220001 4
15.737 -0.47400001 1.893 6
16.201 -0.48500001 1.859 8
17.544001 -0.52100003 1.916 10
13.312 -0.39500001 1.832 6
14.098 -0.41600001 1.8609999 4
15.247 -0.44600001 1.928 4
15.471 -0.44999999 1.868 7
16.187 -0.46700001 1.865 8
17.412001 -0.49900001 1.909 11
13.166 -0.377 1.818 6
14.078 -0.40000001 1.865 4
15.259 -0.43099999 1.936 6
15.341 -0.43000001 1.859 7
16.191999 -0.44999999 1.872 9
16.735001 -0.46200001 1.842 7
13.143 -0.36199999 1.821 6
14.077 -0.38499999 1.8710001 5
15.245 -0.414 1.941 6
15.302 -0.412 1.8609999 7
16.184 -0.433 1.878 9
16.582001 -0.44 1.831 7
13.142 -0.34799999 1.826 7
14.075 -0.37 1.876 6
15.261 -0.398 1.948 7
15.278 -0.39500001 1.863 5
16.187 -0.41499999 1.8839999 8
16.493999 -0.41999999 1.827 7
13.13 -0.333 1.8279999 6
14.071 -0.354 1.88 7
15.246 -0.38100001 1.951 6
15.286 -0.37799999 1.869 6
16.177999 -0.39700001 1.887 7
16.450001 -0.40099999 1.827 6
13.137 -0.31900001 1.8329999 6
14.062 -0.33899999 1.882 6
15.23 -0.36399999 1.9529999 6
15.258 -0.361 1.869 8
16.181 -0.38 1.892 7
16.379 -0.38100001 1.823 6
16.408001 -0.80800003 1.829 10
17.469999 -0.85799998 1.854 15
19.143999 -0.93800002 1.929 9
19.368 -0.94700003 1.846 6
19.933001 -0.97299999 1.794 16
19.916 -0.97000003 1.686 17
16.240999 -0.79400003 1.834 10
16.827 -0.81999999 1.8099999 8
18.628 -0.90600002 1.904 10
19.305 -0.93699998 1.868 7
20.039 -0.97000003 1.832 13
19.996 -0.96499997 1.721 14
16.216 -0.78600001 1.854 9
16.811001 -0.81199998 1.831 8
18.250999 -0.88 1.89 13
19.264999 -0.926 1.89 7
20.509001 -0.98400003 1.902 14
20.361 -0.97399998 1.78 14
16.205999 -0.778 1.875 9
16.74 -0.801 1.846 9
17.681999 -0.84399998 1.855 13
19.225 -0.91500002 1.9119999 10
20.386 -0.96799999 1.918 12
20.646999 -0.97799999 1.8329999 13
16.233999 -0.77200001 1.9 12
16.451 -0.77999997 1.836 8
0 0 0 0
18.851 -0.88800001 1.9 11
20.113001 -0.94499999 1.919 9
20.707001 -0.97000003 1.865 13
16.198 -0.76099998 1.9170001 11
16.243999 -0.76099998 1.835 8
0 0 0 0
18.365999 -0.85600001 1.874 14
19.486 -0.90499997 1.8839999 10
20.813 -0.96399999 1.901 13
16.156 -0.75099999 1.933 9
16.219 -0.75099999 1.852 8
0 0 0 0
18.250999 -0.83999997 1.886 19
19.261999 -0.884 1.887 11
20.913 -0.95599997 1.936 13
15.783 -0.72399998 1.908 6
16.212999 -0.741 1.872 7
17.201 -0.78399998 1.893 10
18.247999 -0.829 1.908 18
19.054001 -0.86299998 1.8890001 9
20.809999 -0.93900001 1.952 13
15.407 -0.69800001 1.881 6
16.209 -0.73100001 1.891 8
16.575001 -0.745 1.844 7
18.261 -0.81800002 1.931 19
18.49 -0.82499999 1.855 8
0 0 0 0
15.29 -0.68199998 1.885 7
16.205999 -0.72000003 1.91 7
16.311001 -0.722 1.834 8
18.257999 -0.80599999 1.952 20
18.294001 -0.80500001 1.857 8
19.33 -0.847 1.858 15
15.274 -0.671 1.901 8
16.181 -0.708 1.925 7
16.226999 -0.708 1.8430001 9
18.202 -0.79100001 1.966 14
18.268999 -0.79100001 1.875 9
19.278999 -0.83099997 1.874 21
15.269 -0.66000003 1.9170001 9
16.110001 -0.69400001 1.9349999 7
16.219 -0.69599998 1.86 9
17.618999 -0.75300002 1.923 8
18.261 -0.77700001 1.8940001 13
18.874001 -0.80000001 1.855 13
15.267 -0.64899999 1.933 10
15.688 -0.66399997 1.901 7
16.208 -0.68300003 1.876 10
16.900999 -0.70899999 1.862 11
18.271999 -0.764 1.914 31
18.805 -0.78299999 1.868 8
15.259 -0.63700002 1.949 9
15.358 -0.63800001 1.877 7
16.198 -0.67000002 1.891 11
16.622 -0.685 1.848 9
18.275 -0.75 1.933 39
18.851 -0.76999998 1.891 9
15.249 -0.625 1.962 9
15.28 -0.62300003 1.883 8
16.193001 -0.65700001 1.9069999 10
16.398001 -0.66299999 1.839 7
18.259001 -0.73500001 1.949 26
18.837999 -0.755 1.908 12
15.163 -0.60900003 1.966 7
15.263 -0.61000001 1.895 9
16.202 -0.64399999 1.923 8
16.24 -0.64300001 1.837 7
18.225 -0.71799999 1.962 12
18.676001 -0.73299998 1.908 11
19.302 -0.96700001 1.654 18
19.261 -0.96499997 1.549 11
19.247 -0.96399999 1.447 12
19.249001 -0.96499997 1.344 10
19.246 -0.96399999 1.243 10
19.232 -0.96399999 1.142 10
19.268999 -0.97000003 1.684 14
19.267 -0.97000003 1.5829999 13
19.257999 -0.96899998 1.4809999 13
19.235001 -0.96799999 1.376 11
19.240999 -0.96799999 1.276 10
19.235001 -0.96799999 1.175 10
19.271 -0.97399998 1.7180001 11
19.264 -0.97299999 1.6160001 15
19.257999 -0.97299999 1.5140001 13
19.242001 -0.972 1.41 11
19.239 -0.972 1.308 9
19.233999 -0.97100002 1.207 11
19.261999 -0.977 1.75 9
19.288 -0.97799999 1.65 18
19.257999 -0.97600001 1.5470001 13
19.23 -0.97399998 1.441 12
19.243999 -0.97399998 1.342 10
19.23 -0.97299999 1.24 11
19.261999 -0.97899997 1.7819999 8
19.25 -0.97799999 1.6799999 14
19.263 -0.97799999 1.579 14
19.243 -0.977 1.474 12
19.24 -0.97600001 1.373 11
19.225 -0.97500002 1.271 11
19.245001 -0.98000002 1.813 7
19.247999 -0.97899997 1.711 10
19.26 -0.97899997 1.6109999 16
19.239 -0.977 1.506 13
19.243999 -0.977 1.405 11
19.228001 -0.97600001 1.303 11
19.205999 -0.97899997 1.841 10
19.254 -0.98000002 1.744 9
19.257 -0.98000002 1.643 16
19.250999 -0.97799999 1.539 12
19.249001 -0.97799999 1.437 12
19.233 -0.97600001 1.335 11
19.200001 -0.97799999 1.872 10
19.253 -0.98000002 1.776 9
19.240999 -0.97899997 1.673 15
19.256001 -0.97799999 1.571 14
19.236 -0.97600001 1.467 13
19.24 -0.97600001 1.3660001 11
19.205999 -0.97799999 1.904 11
19.26 -0.98000002 1.808 7
19.250999 -0.97799999 1.705 11
19.247 -0.977 1.601 15
19.247999 -0.97600001 1.499 13
19.232 -0.97399998 1.397 11
19.171 -0.97500002 1.932 13
19.209999 -0.97600001 1.834 8
19.257999 -0.977 1.7359999 9
19.263 -0.97600001 1.633 18
19.250999 -0.97399998 1.53 12
19.233 -0.972 1.427 12
18.712 -0.949 1.915 11
19.209 -0.97299999 1.864 9
19.261999 -0.97500002 1.767 8
19.280001 -0.97399998 1.665 17
19.267 -0.972 1.562 13
19.24 -0.96899998 1.4579999 12
18.271999 -0.92400002 1.899 11
19.204 -0.97000003 1.8940001 10
19.261999 -0.97100002 1.7970001 7
19.256001 -0.96899998 1.693 12
19.267 -0.96799999 1.592 13
19.243 -0.96600002 1.488 13
18.254 -0.92000002 1.926 26
19.202 -0.96600002 1.923 11
19.237 -0.96600002 1.825 7
19.263 -0.96600002 1.723 11
19.305 -0.96600002 1.624 15
19.243999 -0.96200001 1.517 12
0 0 0 0
18.820999 -0.94199997 1.914 9
19.205999 -0.95999998 1.851 8
19.278 -0.96100003 1.753 11
19.305 -0.96100003 1.653 15
19.259001 -0.95700002 1.5470001 11
16.841 -0.83999997 1.8279999 11
18.311001 -0.912 1.8890001 10
19.209999 -0.95499998 1.88 7
19.729 -0.97799999 1.823 13
19.312 -0.95599997 1.682 13
19.267 -0.95200002 1.576 11
16.754999 -0.83099997 1.8430001 9
18.261999 -0.90399998 1.911 21
19.222 -0.949 1.909 8
0 0 0 0
19.896999 -0.97799999 1.762 15
19.316 -0.94800001 1.608 14
23.632999 -0.958 1.3559999 13
23.632 -0.96200001 1.233 15
23.615 -0.96399999 1.109 8
23.636999 -0.96799999 0.98400003 8
23.632999 -0.972 0.861 15
23.666 -0.97600001 0.74000001 0
23.636999 -0.98000002 1.398 13
23.635 -0.98299998 1.274 11
23.632999 -0.986 1.151 7
20.757999 -0.86799997 0.90100002 7
20.708 -0.86900002 0.79100001 10
20.635 -0.86900002 0.68099999 14
0 0 0 0
23.624001 -1.002 1.3150001 8
23.625999 -1.005 1.192 1
20.725 -0.88499999 0.93599999 9
20.643999 -0.884 0.82499999 8
20.625 -0.88499999 0.71700001 14
21.483999 -0.92699999 1.346 15
20.889 -0.903 1.2 9
20.726999 -0.89899999 1.0829999 9
20.660999 -0.898 0.97000003 9
20.629999 -0.89899999 0.861 7
20.629 -0.90200001 0.75400001 10
20.895 -0.91799998 1.347 12
20.718 -0.912 1.227 12
20.665001 -0.912 1.1160001 9
20.629999 -0.91299999 1.005 9
20.622 -0.91399997 0.89700001 9
20.627001 -0.917 0.79000002 12
20.73 -0.926 1.373 14
20.655001 -0.92400002 1.26 14
20.622999 -0.92500001 1.15 10
20.625999 -0.92699999 1.041 9
20.629 -0.92900002 0.93400002 9
20.625999 -0.93099999 0.82700002 12
20.676001 -0.93800002 1.406 16
20.629 -0.93699998 1.295 16
20.628 -0.93900001 1.187 16
20.620001 -0.94099998 1.077 9
20.629 -0.94300002 0.97000003 9
20.618 -0.94400001 0.86299998 10
20.632 -0.949 1.4400001 18
20.646 -0.95200002 1.3329999 22
20.632 -0.95300001 1.224 13
20.606001 -0.95300001 1.114 12
20.615 -0.95499998 1.007 9
20.028 -0.93000001 0.87400001 8
20.193001 -0.94199997 1.4450001 12
20.622999 -0.963 1.368 31
20.48 -0.958 1.252 17
20.497999 -0.95999998 1.1440001 11
20.132 -0.94499999 1.0190001 8
19.959999 -0.93800002 0.90600002 8
0 0 0 0
20.643 -0.97600001 1.406 25
20.097 -0.95099998 1.2640001 15
20.023001 -0.949 1.153 10
19.961 -0.94700003 1.045 8
0 0 0 0
19.895 -0.94999999 1.494 15
19.938999 -0.95300001 1.393 15
20.089001 -0.96100003 1.299 15
0 0 0 0
0 0 0 0
19.893999 -0.95599997 0.97399998 14
19.305 -0.93099999 1.485 11
19.306 -0.93199998 1.3839999 10
0 0 0 0
19.799999 -0.958 1.21 14
19.396 -0.93900001 1.084 7
19.268999 -0.93400002 0.977 8
19.288 -0.93900001 1.517 11
19.271999 -0.93900001 1.415 8
19.332001 -0.94300002 1.318 9
19.348 -0.94400001 1.216 11
19.280001 -0.94199997 1.1109999 8
19.261999 -0.94199997 1.01 8
19.283001 -0.94700003 1.551 13
19.271 -0.94700003 1.449 9
19.268 -0.94700003 1.348 9
19.301001 -0.949 1.247 8
19.259001 -0.94800001 1.1440001 8
19.253 -0.94800001 1.043 8
19.281 -0.954 1.584 12
19.273001 -0.954 1.483 11
19.266001 -0.954 1.381 10
19.254 -0.954 1.278 8
19.246 -0.954 1.177 9
19.246 -0.954 1.076 8
19.281 -0.95999998 1.618 14
19.261 -0.95899999 1.516 12
19.249001 -0.95899999 1.414 11
19.243999 -0.95899999 1.311 8
19.25 -0.95999998 1.211 10
19.238001 -0.95999998 1.109 7
41.292999 -0.875 1.28 23
41.360001 -0.88700002 1.0650001 21
41.481998 -0.89999998 0.85100001 2
35.682999 -0.78299999 0.542 18
35.687 -0.792 0.35499999 22
35.660999 -0.80000001 0.168 23
38.561001 -0.87400001 1.253 14
38.323002 -0.87800002 1.045 11
35.735001 -0.82700002 0.787 10
35.648998 -0.83399999 0.59600002 16
35.640999 -0.84200001 0.40900001 24
35.623001 -0.85100001 0.223 26
36.257999 -0.87400001 1.235 12
35.664001 -0.86799997 1.028 15
35.641998 -0.87599999 0.84100002 20
35.672001 -0.88499999 0.65100002 2
32.757 -0.81999999 0.426 15
32.701 -0.82700002 0.255 18
35.651001 -0.90899998 1.27 17
32.740002 -0.84200001 0.995 14
32.645 -0.847 0.82099998 16
32.464001 -0.85000002 0.64300001 18
0 0 0 0
0 0 0 0
32.841 -0.88200003 1.221 8
0 0 0 0
31.094 -0.85000002 0.83099997 8
30.884001 -0.85100001 0.66100001 14
29.802 -0.82800001 0.48300001 12
29.707001 -0.83200002 0.32600001 17
32.639999 -0.921 1.266 19
30.941999 -0.88 1.039 11
30.403 -0.87099999 0.86199999 9
29.655001 -0.85600001 0.68300003 11
29.632999 -0.86199999 0.528 14
29.632999 -0.86799997 0.373 13
32.633999 -0.963 1.319 16
29.708 -0.88300002 1.045 11
29.641001 -0.88700002 0.88800001 10
29.615 -0.89300001 0.73000002 15
0 0 0 0
26.587 -0.81300002 0.37799999 13
29.632999 -0.912 1.2460001 14
29.632 -0.91799998 1.091 15
0 0 0 0
0 0 0 0
27.309999 -0.86299998 0.57599998 6
26.599001 -0.84600002 0.42199999 18
0 0 0 0
0 0 0 0
27.367001 -0.88700002 0.91000003 7
26.657 -0.86900002 0.745 13
26.625999 -0.87300003 0.60500002 12
26.6 -0.87800002 0.46599999 21
25.705999 -0.85299999 1.166 5
26.704 -0.89099997 1.071 11
0 0 0 0
25.872 -0.87400001 0.76599997 11
0 0 0 0
0 0 0 0
0 0 0 0
25.868 -0.89399999 1.082 9
25.129999 -0.87300003 0.92000002 8
25.094 -0.87599999 0.78500003 11
24.277 -0.852 0.63300002 12
24.332001 -0.85799998 0.50800002 8
25.080999 -0.88999999 1.222 10
24.958 -0.88999999 1.086 10
24.712999 -0.88499999 0.94599998 13
24.489 -0.88200003 0.80800003 9
23.743999 -0.85900003 0.66000003 11
23.624001 -0.85900003 0.53399998 10
24.708 -0.90399998 1.2460001 11
24.297001 -0.89300001 1.099 6
23.750999 -0.87699997 0.94999999 12
23.718 -0.87900001 0.82300001 10
23.572001 -0.87800002 0.69599998 11
23.625999 -0.884 0.574 15
0 0 0 0
23.68 -0.89499998 1.1109999 10
23.639 -0.89700001 0.986 11
23.615999 -0.89999998 0.86000001 18
23.599001 -0.903 0.73699999 15
23.618 -0.90799999 0.61500001 16
23.716 -0.91600001 1.278 13
23.649 -0.91799998 1.151 11
23.636999 -0.921 1.027 11
23.615999 -0.92299998 0.90100002 19
23.621 -0.92699999 0.778 14
23.563999 -0.92900002 0.65399998 18
23.648001 -0.93699998 1.3150001 12
23.632 -0.94 1.191 13
23.629999 -0.94300002 1.068 9
23.629999 -0.94599998 0.94300002 18
23.629999 -0.94999999 0.81999999 17
23.414 -0.94499999 0.69099998 9
188.285 1.102 1.937 34
290.414 1.609 1.442 20
291.405 1.525 -0.105 53
57.505001 0.28200001 -0.33199999 25
57.451 0.26499999 -0.63800001 36
57.495998 0.24699999 -0.94400001 13
57.492001 0.229 0.653 13
290.67801 1.066 1.758 15
291.35199 0.98000002 0.212 38
57.535999 0.175 -0.26899999 6
57.462002 0.15800001 -0.57499999 39
57.492001 0.141 -0.88099998 38
57.498001 0.123 0.71700001 22
0 0 0 0
291.45901 0.447 0.53600001 14
170.661 0.20999999 -0.60900003 16
57.464001 0.052999999 -0.50999999 35
57.477001 0.035999998 -0.815 39
57.479 0.018999999 0.78100002 38
188.61301 0.0070000002 1.562 8
189.20799 -0.050000001 0.56400001 29
170.56599 -0.093999997 -0.414 30
57.48 -0.048999999 -0.44400001 31
57.449001 -0.066 -0.74900001 22
57.471001 -0.082000002 0.847 34
156.29401 -0.27200001 1.476 6
147.215 -0.301 0.611 10
142.188 -0.33199999 -0.178 7
57.495998 -0.15099999 -0.37599999 25
57.448002 -0.169 -0.68000001 27
57.469002 -0.185 0.91600001 40
57.522999 -0.20200001 0.61199999 12
57.526001 -0.219 0.308 12
57.519001 -0.237 -0.001 26
57.469002 -0.25400001 -0.30500001 27
57.431 -0.27000001 -0.60900003 34
57.462002 -0.287 0.98699999 33
57.479 -0.30399999 0.68300003 33
57.493 -0.32100001 0.38 32
57.473999 -0.338 0.07 46
57.48 -0.354 -0.233 47
57.469002 -0.37099999 -0.537 33
57.438 -0.38600001 1.059 24
57.474998 -0.403 0.75599998 38
57.492001 -0.419 0.45199999 40
57.473999 -0.43599999 0.14300001 42
57.479 -0.45300001 -0.15899999 41
57.473 -0.47 -0.463 38
57.465 -0.48500001 1.1339999 34
57.469002 -0.50099999 0.82999998 38
57.491001 -0.51800001 0.52700001 38
57.473999 -0.53399998 0.21799999 26
57.483002 -0.551 -0.083999999 31
57.476002 -0.56699997 -0.38699999 39
57.478001 -0.58200002 1.209 45
57.481998 -0.59799999 0.90600002 29
57.485001 -0.61500001 0.60399997 46
57.492001 -0.63099998 0.29499999 40
57.488998 -0.648 -0.0070000002 36
57.488998 -0.66399997 -0.30899999 34
57.48 -0.67799997 1.2869999 38
53.585999 -0.64700001 0.917 12
57.507999 -0.71100003 0.68199998 44
57.519001 -0.72600001 0.373 47
57.529999 -0.74299997 0.071000002 25
57.574001 -0.759 -0.23100001 20
57.487999 -0.77200001 1.3660001 38
57.506001 -0.78799999 1.063 19
57.556 -0.80400002 0.76099998 8
54.647999 -0.778 0.42899999 33
54.637001 -0.79299998 0.142 26
52.379002 -0.77399999 -0.138 24
54.592999 -0.82099998 1.373 13
54.594002 -0.83499998 1.085 5
52.389999 -0.815 0.76599997 17
47.446999 -0.75099999 0.44 10
47.431 -0.764 0.191 10
47.41 -0.77600002 -0.057 19
50.187 -0.83399999 1.3329999 9
47.410999 -0.80000001 1.01 10
44.68 -0.76599997 0.71700001 20
44.647999 -0.778 0.479 35
44.640999 -0.78899997 0.244 36
44.594002 -0.80000001 0.0099999998 23
44.668999 -0.81199998 1.252 30
44.561001 -0.82099998 1.0140001 17
44.542 -0.83200002 0.77999997 12
41.674999 -0.78899997 0.50700003 24
41.720001 -0.801 0.289 19
41.639 -0.81 0.07 22
0 0 0 0
41.780998 -0.833 1.013 14
41.657001 -0.84200001 0.792 20
41.653999 -0.852 0.56900001 6
41.639999 -0.86299998 0.35100001 4
38.650002 -0.81 0.123 24
26.624001 0.99299997 -0.052999999 22
26.966999 0.99699998 -0.20100001 13
27.405001 1.005 -0.35299999 7
28.768 1.045 -0.52999997 34
28.714001 1.035 -0.685 30
28.136 1.005 -0.82499999 16
29.624001 1.045 -0.045000002 30
29.622999 1.035 -0.206 30
29.639999 1.026 -0.36700001 20
29.684999 1.0190001 -0.53200001 25
29.940001 1.018 -0.699 14
30.02 1.012 -0.86400002 16
32.631001 1.085 -0.032000002 16
32.550999 1.072 -0.20900001 34
32.622002 1.064 -0.38600001 30
32.632 1.054 -0.56599998 22
32.695999 1.046 -0.745 19
30.66 0.97100002 -0.86500001 12
32.653 1.02 -0.014 24
33.129002 1.024 -0.193 10
0 0 0 0
35.636002 1.079 -0.59799999 29
35.693001 1.0700001 -0.792 20
33.057999 0.98000002 -0.91299999 1
35.624001 1.0420001 0.0049999999 33
35.676998 1.0319999 -0.186 23
36.344002 1.039 -0.38600001 11
37.528 1.061 -0.60600001 13
37.118 1.038 -0.80000001 11
33.055 0.91399997 -0.89099997 17
38.27 1.043 0.029999999 24
38.566002 1.038 -0.177 20
0 0 0 0
0 0 0 0
38.567001 1.002 -0.80599999 11
33.429001 0.85699999 -0.87900001 9
41.653999 1.051 0.061999999 33
41.834999 1.0420001 -0.163 14
43.766998 1.076 -0.40599999 22
44.219002 1.073 -0.65399998 16
40.609001 0.97299999 -0.81900001 13
36.750999 0.86900002 -0.94 17
45.416 1.056 0.1 20
46.778999 1.072 -0.148 20
47.497002 1.073 -0.40599999 15
0 0 0 0
42.016998 0.92299998 -0.81599998 14
36.771 0.796 -0.91299999 37
52.423 1.115 0.155 26
52.499001 1.099 -0.126 22
54.695 1.128 -0.426 12
57.436001 1.166 -0.76200002 23
0 0 0 0
36.799999 0.72299999 -0.884 20
57.459999 1.108 0.21600001 34
57.462002 1.09 -0.092 51
57.458 1.071 -0.40099999 33
57.444 1.053 -0.71499997 36
45.219002 0.81400001 -0.80599999 17
0 0 0 0
57.506001 0.99599999 0.264 22
69.663002 1.184 -0.054000001 26
57.487 0.95899999 -0.35299999 47
57.436001 0.94 -0.66600001 40
47.115002 0.75700003 -0.80000001 20
40.465 0.63700002 -0.90399998 10
78.711998 1.21 0.42899999 10
78.956001 1.188 0.0070000002 26
57.499001 0.847 -0.30199999 25
57.438 0.82800001 -0.61500001 39
0 0 0 0
41.535 0.57200003 -0.88999999 15
93.698997 1.258 0.59500003 14
98.684998 1.294 0.097999997 17
57.547001 0.73699999 -0.25 10
57.445999 0.71700001 -0.56300002 40
57.48 0.699 -0.87099999 17
42.898998 0.509 -0.87900001 15
117.693 1.354 0.85799998 15
126.711 1.419 0.245 11
138.62601 1.51 -0.472 13
57.445999 0.60699999 -0.50800002 45
57.467999 0.58899999 -0.815 39
44.956001 0.447 -0.87800002 18
156.30099 1.501 1.29 5
168.19099 1.563 0.49000001 18
171.15401 1.5369999 -0.414 42
57.458 0.498 -0.45100001 42
57.438 0.47999999 -0.75700003 25
46.407001 0.37400001 -0.86000001 17
188.528 1.457 1.744 36
0 0 0 0
171.86501 1.222 -0.243 14
57.487 0.38999999 -0.39300001 41
57.437 0.37200001 -0.69800001 35
48.703999 0.301 -0.852 19
13.462 0.926 -0.061000001 11
13.509 0.92500001 -0.13600001 8
14.111 0.963 -0.221 11
14.106 0.95899999 -0.30000001 13
14.216 0.96200001 -0.382 10
14.367 0.96899998 -0.46599999 12
14.193 0.949 -0.066 11
14.398 0.95899999 -0.147 11
14.412 0.95599997 -0.227 13
14.403 0.95200002 -0.308 18
14.593 0.95999998 -0.39300001 18
14.597 0.95700002 -0.47499999 18
14.602 0.949 -0.07 13
14.615 0.94599998 -0.15000001 17
14.604 0.94099998 -0.23100001 15
14.601 0.93699998 -0.31400001 18
14.607 0.93300003 -0.39500001 17
14.679 0.93400002 -0.47799999 16
14.616 0.92199999 -0.07 14
14.609 0.91799998 -0.15099999 17
14.606 0.91299999 -0.23199999 18
14.66 0.91299999 -0.315 14
15.371 0.95300001 -0.41600001 10
16.190001 0.99900001 -0.528 17
14.661 0.89700001 -0.071000002 11
0 0 0 0
15.365 0.93099999 -0.244 13
16.187 0.97600001 -0.34799999 17
16.200001 0.97299999 -0.43799999 14
16.197001 0.96799999 -0.52700001 22
15.446 0.91500002 -0.074000001 11
16.212999 0.95499998 -0.167 14
16.226 0.95200002 -0.257 16
16.209999 0.94599998 -0.34799999 15
16.250999 0.94300002 -0.43799999 12
16.236 0.93800002 -0.528 20
16.677 0.95499998 -0.079000004 17
16.863001 0.96100003 -0.17299999 13
16.931 0.95999998 -0.26699999 15
17.607 0.99299997 -0.37599999 16
17.615999 0.98799998 -0.47400001 15
17.638 0.98400003 -0.57200003 21
17.605 0.97299999 -0.082000002 19
17.618999 0.96899998 -0.17900001 14
17.629999 0.96399999 -0.27599999 15
17.627001 0.95899999 -0.375 13
17.688999 0.95700002 -0.47299999 13
18.716 1.007 -0.60399997 10
0 0 0 0
18.254 0.96700001 -0.182 14
0 0 0 0
19.121 1.002 -0.403 14
19.247999 1.003 -0.51200002 13
19.282 0.99900001 -0.61900002 10
19.226 0.98699999 -0.082999997 12
0 0 0 0
19.829 1.005 -0.303 14
19.819 0.99900001 -0.414 14
20.570999 1.031 -0.54299998 8
20.611 1.027 -0.65700001 11
20.608999 1.017 -0.085000001 12
20.604 1.01 -0.198 17
20.613001 1.0039999 -0.31099999 13
20.608 0.99800003 -0.426 11
20.624001 0.99299997 -0.53899997 13
20.657 0.98799998 -0.653 13
20.627001 0.977 -0.079999998 14
20.653999 0.97100002 -0.193 15
20.777 0.97100002 -0.308 12
21.115999 0.98000002 -0.43000001 15
21.427 0.98799998 -0.55400002 14
22.164 1.016 -0.69499999 11
21.563 0.97799999 -0.077 17
21.756001 0.98000002 -0.197 13
22.757 1.018 -0.33000001 21
22.674 1.007 -0.45500001 19
23.062 1.017 -0.58899999 11
23.607 1.034 -0.73199999 10
22.98 0.99599999 -0.074000001 20
23.586 1.015 -0.205 21
23.601999 1.008 -0.33399999 21
23.614 1.001 -0.46599999 14
23.688 0.99699998 -0.59600002 11
23.784 0.99400002 -0.72899997 8
23.620001 0.97600001 -0.068000004 18
23.74 0.97399998 -0.197 19
24.188999 0.98500001 -0.333 21
24.698999 0.99800003 -0.477 9
25.105 1.006 -0.62199998 9
0 0 0 0
0 0 0 0
0 0 0 0
26.610001 1.029 -0.35499999 21
26.614 1.021 -0.50300002 14
26.68 1.015 -0.64899999 11
26.983 1.018 -0.80400002 14
8.6370001 0.82999998 0.018999999 4
8.677 0.83200002 -0.028999999 3
21.042 2.0150001 -0.191 4
20.937 2.0009999 -0.31 8
20.597 1.964 -0.42199999 8
20.625 1.9630001 -0.53799999 18
8.7019997 0.824 0.013 3
20.639 1.949 -0.083999999 5
20.610001 1.942 -0.20100001 10
20.593 1.936 -0.31900001 17
20.593 1.932 -0.435 20
20.627001 1.932 -0.55199999 23
20.615 1.92 0.017999999 9
20.587999 1.913 -0.097000003 13
20.624001 1.911 -0.213 21
20.615999 1.906 -0.33199999 26
20.608999 1.902 -0.44800001 20
20.622999 1.899 -0.56400001 21
20.618999 1.888 0.0049999999 22
20.587 1.88 -0.11 18
20.628 1.8789999 -0.226 24
20.621 1.874 -0.34400001 23
20.603001 1.868 -0.46000001 16
20.639 1.867 -0.57700002 18
20.638 1.8559999 -0.0049999999 24
20.617001 1.849 -0.121 16
20.677 1.85 -0.23800001 19
20.663 1.844 -0.35600001 13
20.712999 1.844 -0.47400001 12
20.801001 1.848 -0.59299999 9
28.718 2.536 -0.024 3
20.784 1.83 -0.134 6
27.895 2.45 -0.336 15
24.094 2.1110001 -0.428 2
24.049999 2.102 -0.56300002 6
22.153 1.931 -0.64300001 9
24.118999 2.0899999 -0.032000002 13
24.101999 2.0829999 -0.167 9
24.094 2.0769999 -0.30199999 10
24.080999 2.0699999 -0.44 7
24.021999 2.059 -0.574 7
11.652 0.99599999 -0.34400001 7
24.101 2.0469999 -0.044 10
24.073 2.039 -0.178 3
11.932 1.008 -0.155 8
11.762 0.991 -0.22 8
11.619 0.97600001 -0.28299999 8
11.609 0.972 -0.34799999 10
12.082 1.005 -0.027000001 11
11.685 0.96899998 -0.092 8
11.619 0.96100003 -0.156 9
11.607 0.95700002 -0.222 9
11.611 0.95499998 -0.287 8
11.61 0.95200002 -0.352 10
11.626 0.94700003 -0.030999999 9
11.636 0.94499999 -0.096000001 8
11.617 0.94099998 -0.161 9
11.601 0.93699998 -0.227 10
11.617 0.935 -0.292 7
11.625 0.93300003 -0.35699999 10
11.621 0.92699999 -0.035 11
11.633 0.92500001 -0.1 9
11.612 0.92000002 -0.16500001 9
11.628 0.91900003 -0.23100001 8
11.648 0.917 -0.29699999 6
11.682 0.917 -0.36300001 8
11.627 0.90700001 -0.039000001 10
11.641 0.90499997 -0.104 8
11.648 0.90200001 -0.169 7
11.75 0.90700001 -0.23800001 7
12.35 0.95099998 -0.31900001 7
13.046 1.001 -0.41 10
11.665 0.889 -0.043000001 7
12.046 0.91399997 -0.111 7
12.361 0.935 -0.183 8
13.061 0.98500001 -0.26800001 12
13.084 0.98299998 -0.34099999 15
13.071 0.97899997 -0.414 15
12.363 0.91900003 -0.048999999 8
13.062 0.96799999 -0.124 12
13.089 0.96600002 -0.197 17
13.078 0.96200001 -0.27200001 18
13.077 0.95899999 -0.34400001 14
13.078 0.95499998 -0.417 15
13.088 0.949 -0.055 13
13.098 0.94599998 -0.12800001 17
13.097 0.94199997 -0.20100001 17
13.086 0.93800002 -0.27399999 14
13.103 0.93599999 -0.34799999 11
13.115 0.93400002 -0.421 12
13.106 0.926 -0.057 14
13.118 0.92299998 -0.13 13
13.247 0.92900002 -0.205 13
13.478 0.94099998 -0.285 10
13.477 0.93800002 -0.36000001 9
14.011 0.97100002 -0.45199999 11
16.771999 1.938 0.273 10
21.518999 2.483 0.227 5
21.497999 2.4779999 0.104 8
21.527 2.4790001 -0.02 0
20.066 2.309 -0.133 7
20.517 2.358 -0.25299999 10
21.517 2.4660001 0.32800001 7
21.509001 2.4619999 0.205 11
21.496 2.4579999 0.082000002 10
21.458 2.451 -0.041000001 9
0 0 0 0
21.233 2.4200001 -0.28400001 7
21.528 2.447 0.30599999 14
21.518999 2.4430001 0.183 11
21.509001 2.4389999 0.059999999 13
20.76 2.3510001 -0.061000001 15
0 0 0 0
18.275999 2.0650001 -0.26199999 9
21.528999 2.425 0.28400001 9
21.540001 2.4230001 0.162 6
21.531 2.4189999 0.039000001 6
18.256001 2.049 -0.071999997 9
18.249001 2.046 -0.176 8
18.039 2.02 -0.27700001 12
18.287001 2.0409999 0.22400001 19
18.240999 2.033 0.119 13
18.225 2.029 0.015 13
18.221001 2.026 -0.090000004 10
17.943001 1.992 -0.19 11
17.924999 1.988 -0.292 18
18.252001 2.017 0.205 20
17.902 1.976 0.1 13
18.159 2.0009999 -0.001 18
17.802 1.96 -0.105 12
17.740999 1.95 -0.205 18
17.605 1.933 -0.30399999 22
18.033001 1.973 0.186 19
17.659 1.929 0.082000002 15
17.716 1.932 -0.017999999 18
17.618999 1.919 -0.12 18
17.613001 1.916 -0.22 21
17.580999 1.91 -0.31999999 11
17.620001 1.9069999 0.16500001 19
17.608 1.903 0.064999998 19
17.610001 1.9 -0.034000002 23
17.594999 1.896 -0.13600001 16
17.608999 1.895 -0.236 14
17.580999 1.8890001 -0.336 8
17.617001 1.885 0.149 22
17.608999 1.882 0.048999999 21
17.605 1.8789999 -0.050000001 17
17.587 1.874 -0.15099999 11
17.594 1.872 -0.25099999 8
8.6129999 0.91500002 -0.17200001 3
17.613001 1.863 0.134 19
17.606001 1.86 0.034000002 15
17.597 1.8559999 -0.064999998 10
17.587 1.852 -0.167 3
8.6129999 0.90499997 -0.13 4
8.6190004 0.90499997 -0.17900001 4
17.608 1.84 0.119 11
17.608 1.837 0.018999999 8
17.613001 1.835 -0.079999998 0
8.6049995 0.89499998 -0.089000002 3
8.6110001 0.89399999 -0.13699999 4
8.6230001 0.89399999 -0.18700001 3
17.629999 1.8200001 0.104 5
8.6210003 0.88800001 0.0020000001 3
8.6040001 0.88499999 -0.046 2
8.6099997 0.884 -0.096000001 3
8.6079998 0.88200003 -0.14399999 4
8.6230001 0.88200003 -0.19400001 3
8.6149998 0.87699997 0.044 4
8.6280003 0.87699997 -0.0040000002 3
8.5959997 0.87199998 -0.052999999 2
8.5979996 0.87099999 -0.102 3
8.6169996 0.87099999 -0.15099999 4
8.6160002 0.87 -0.2 3
8.6160002 0.866 0.037 5
8.6120005 0.86400002 -0.011 4
8.6000004 0.861 -0.059 2
8.6079998 0.86000001 -0.109 3
8.6359997 0.861 -0.15800001 4
8.6859999 0.86500001 -0.208 3
8.6140003 0.85299999 0.030999999 4
8.6140003 0.852 -0.017000001 4
8.6099997 0.85000002 -0.066 2
8.6389999 0.85100001 -0.116 4
8.6850004 0.85399997 -0.16500001 3
20.915001 2.053 -0.51800001 2
8.6190004 0.84100002 0.024 4
8.625 0.83999997 -0.023 3
8.6520004 0.84100002 -0.071999997 3
21.040001 2.0420001 -0.29699999 1
20.627001 1.998 -0.40799999 2
20.679001 1.999 -0.52600002 5
14.603 1.814 0.50199997 14
14.592 1.812 0.417 13
14.607 1.813 0.33399999 13
14.599 1.812 0.249 12
14.614 1.813 0.16500001 11
14.617 1.813 0.081 12
14.598 1.811 0.484 15
14.605 1.811 0.40099999 13
14.604 1.8099999 0.317 13
14.595 1.808 0.23100001 12
14.604 1.809 0.148 10
14.614 1.8099999 0.064000003 13
14.6 1.807 0.46700001 14
14.598 1.806 0.38299999 13
14.611 1.807 0.30000001 13
14.609 1.806 0.215 12
14.608 1.8049999 0.131 10
14.632 1.808 0.046999998 12
14.593 1.802 0.44999999 13
14.599 1.802 0.366 15
14.612 1.803 0.28299999 12
14.593 1.8 0.197 11
14.622 1.802 0.114 10
14.639 1.804 0.029999999 11
14.606 1.799 0.433 13
14.611 1.798 0.34999999 13
14.632 1.8 0.266 10
14.623 1.798 0.18099999 10
14.64 1.799 0.097000003 10
14.659 1.801 0.013 10
14.626 1.796 0.417 13
14.624 1.794 0.333 12
14.608 1.791 0.249 9
14.614 1.791 0.164 8
14.654 1.795 0.079999998 10
14.699 1.8 -0.003 9
14.645 1.791 0.40099999 12
14.639 1.79 0.31600001 11
14.667 1.7920001 0.233 10
14.634 1.7869999 0.147 8
14.706 1.795 0.064000003 10
14.713 1.795 -0.02 9
14.671 1.788 0.384 12
14.647 1.783 0.30000001 9
14.668 1.785 0.21600001 9
14.681 1.785 0.131 8
14.818 1.801 0.046999998 10
15.318 1.8609999 -0.037999999 10
14.713 1.785 0.36899999 12
14.697 1.7819999 0.28400001 9
14.737 1.785 0.2 10
14.896 1.803 0.116 10
15.382 1.8609999 0.030999999 10
0 0 0 0
14.727 1.778 0.352 11
15.19 1.8329999 0.27599999 10
15.308 1.846 0.191 11
15.408 1.857 0.102 13
15.494 1.8660001 0.014 10
16.198999 1.949 -0.077 12
0 0 0 0
0 0 0 0
15.446 1.853 0.175 13
16.18 1.939 0.089000002 16
16.216 1.942 -0.0020000001 14
16.215 1.941 -0.094999999 14
15.425 1.8430001 0.33399999 12
16.187 1.932 0.25799999 13
16.188 1.931 0.16599999 19
16.198999 1.931 0.071000002 17
16.211 1.931 -0.021 14
16.266001 1.936 -0.114 17
16.215 1.926 0.333 16
16.226 1.925 0.241 15
16.23 1.924 0.148 19
16.216 1.921 0.052999999 17
16.242001 1.9220001 -0.037999999 13
16.422001 1.942 -0.133 16
16.415001 1.937 0.31900001 17
16.332001 1.926 0.22499999 12
16.385 1.9299999 0.132 21
16.288 1.9170001 0.035999998 16
16.349001 1.923 -0.056000002 12
16.764999 1.97 -0.153 13
16.679001 1.955 0.30599999 18
16.465 1.928 0.208 12
16.507 1.931 0.115 20
16.511 1.9299999 0.018999999 18
16.658001 1.9450001 -0.075000003 18
16.792999 1.96 -0.17200001 16
16.767 1.952 0.28999999 17
16.768999 1.95 0.19400001 16
16.752001 1.946 0.098999999 17
16.757999 1.9450001 0.001 17
16.789 1.947 -0.093999997 18
20.124001 2.3310001 -0.227 5
14.636 1.773 0.76300001 10
14.635 1.774 0.67900002 12
14.656 1.777 0.59600002 12
14.659 1.778 0.51099998 11
14.677 1.781 0.428 11
14.699 1.784 0.34400001 10
14.625 1.78 0.74800003 10
14.635 1.781 0.66399997 12
14.638 1.7819999 0.58099997 12
14.637 1.783 0.495 12
14.656 1.786 0.412 12
14.664 1.7869999 0.32800001 11
14.611 1.785 0.73199999 13
14.62 1.786 0.64899999 12
14.623 1.7869999 0.565 13
14.633 1.789 0.47999999 12
14.633 1.79 0.396 11
14.643 1.7920001 0.31200001 11
14.607 1.791 0.71600002 13
14.611 1.7920001 0.63300002 12
14.614 1.793 0.54900002 13
14.618 1.794 0.46399999 12
14.614 1.794 0.38 12
14.619 1.795 0.296 10
14.616 1.798 0.70099998 14
14.604 1.7970001 0.61699998 13
14.61 1.798 0.53299999 13
14.607 1.798 0.44800001 12
14.605 1.798 0.36399999 13
14.612 1.799 0.28 11
14.609 1.802 0.685 14
14.599 1.801 0.60000002 13
14.622 1.804 0.51800001 13
14.597 1.802 0.43099999 13
14.6 1.802 0.34799999 14
14.606 1.803 0.264 11
14.603 1.806 0.66799998 15
14.594 1.8049999 0.58399999 14
14.61 1.807 0.50099999 13
14.592 1.8049999 0.41499999 14
14.602 1.807 0.33199999 13
14.61 1.808 0.248 11
14.613 1.811 0.653 15
14.6 1.809 0.56800002 15
14.603 1.8099999 0.48500001 13
14.589 1.808 0.39899999 13
14.602 1.8099999 0.31600001 14
14.608 1.811 0.23199999 12
14.602 1.813 0.63599998 13
14.603 1.813 0.55199999 15
14.596 1.812 0.46799999 14
14.594 1.812 0.38299999 14
14.594 1.812 0.29899999 14
14.597 1.813 0.21600001 12
14.597 1.8150001 0.61900002 15
14.611 1.816 0.53600001 13
14.602 1.8150001 0.45199999 13
14.592 1.814 0.366 16
14.605 1.816 0.28299999 13
14.6 1.8150001 0.199 13
14.603 1.817 0.60299999 16
14.604 1.817 0.51899999 14
14.609 1.818 0.435 13
14.592 1.8150001 0.34999999 15
14.604 1.817 0.266 12
14.6 1.817 0.182 13
14.6 1.818 0.58600003 15
14.601 1.818 0.50199997 13
14.593 1.817 0.41800001 14
14.595 1.817 0.333 14
14.606 1.818 0.249 12
14.612 1.819 0.16599999 12
14.602 1.819 0.56900001 16
14.601 1.818 0.48500001 13
14.585 1.816 0.40099999 14
14.593 1.817 0.31600001 13
14.601 1.818 0.233 12
14.604 1.818 0.149 12
14.61 1.8200001 0.55299997 15
14.594 1.817 0.46799999 13
14.603 1.818 0.38499999 15
14.591 1.816 0.29899999 13
14.608 1.818 0.21600001 12
14.605 1.818 0.132 14
14.6 1.817 0.53500003 15
14.601 1.817 0.45199999 13
14.594 1.816 0.368 15
14.595 1.816 0.28200001 13
14.598 1.816 0.199 12
14.604 1.816 0.115 15
14.6 1.816 0.51899999 15
14.599 1.8150001 0.435 13
14.592 1.814 0.35100001 15
14.601 1.8150001 0.266 12
14.595 1.813 0.182 12
14.605 1.814 0.097999997 12
18.000999 1.928 1.178 8
17.992001 1.929 1.075 8
17.906 1.9220001 0.96799999 8
17.819 1.915 0.861 12
17.854 1.9220001 0.76099998 14
17.830999 1.9220001 0.65899998 14
18.232 1.974 1.182 10
18.235001 1.976 1.079 8
18.231001 1.978 0.97500002 7
18.181 1.975 0.866 10
18.247999 1.985 0.76599997 14
18.028 1.9630001 0.65399998 12
18.247 1.9960001 1.171 9
18.240999 1.997 1.067 8
18.247999 2 0.963 8
18.240999 2.0020001 0.85699999 11
18.264 2.007 0.755 16
18.233 2.006 0.64999998 12
21.07 2.3280001 1.3380001 8
21.346001 2.3610001 1.233 9
21.556999 2.3870001 1.123 7
21.528 2.3859999 0.99699998 9
18.281 2.0280001 0.74199998 14
21.589001 2.398 0.75400001 5
