# .PCD v0.7 - Point Cloud Data file format
VERSION 0.7
FIELDS x y z intensity
SIZE 4 4 4 4
TYPE F F F F
COUNT 1 1 1 1
WIDTH 1711
HEIGHT 1
VIEWPOINT 0 0 0 1 0 0 0
POINTS 1711
DATA ascii
57.48 -0.64300001 -0.73500001 32
57.505001 -0.625 -1.043 40
57.498001 -0.60699999 0.55000001 48
57.493 -0.588 0.243 39
57.480999 -0.56800002 -0.064000003 34
57.472 -0.54900002 -0.377 44
57.472 -0.52999997 -0.685 35
57.490002 -0.51099998 -0.99299997 43
57.471001 -0.49399999 0.60000002 43
403.29001 -3.3329999 2.0539999 153
464.422 -3.6849999 -0.121 171
57.465 -0.43599999 -0.32800001 37
57.473 -0.417 -0.63599998 34
57.474998 -0.39899999 -0.94499999 38
16.809999 -0.96200001 -0.48800001 17
16.802999 -0.95899999 -0.57499999 21
16.809 -0.95700002 -0.66299999 19
16.792999 -0.95300001 -0.75199997 20
16.787001 -0.949 -0.83999997 12
16.785999 -0.94599998 -0.92799997 8
16.823999 -0.94499999 -0.46200001 21
16.809999 -0.94099998 -0.54900002 17
16.82 -0.93900001 -0.63700002 17
16.804001 -0.935 -0.72600001 18
16.783001 -0.93099999 -0.81300002 11
16.792999 -0.92799997 -0.90200001 7
16.84 -0.92799997 -0.43599999 23
16.857 -0.92500001 -0.52499998 16
16.848 -0.92199999 -0.61199999 19
16.855 -0.91900003 -0.70300001 17
16.931999 -0.92000002 -0.79400003 11
16.862 -0.912 -0.87900001 13
17.355 -0.93599999 -0.42300001 24
17.190001 -0.92400002 -0.50800002 15
17.112 -0.91600001 -0.59600002 16
17.083 -0.91100001 -0.68599999 13
17.16 -0.912 -0.77899998 11
17.187 -0.91000003 -0.87 10
17.622 -0.93000001 -0.40200001 19
17.618 -0.926 -0.49399999 17
17.386 -0.91000003 -0.579 11
17.586 -0.917 -0.67900002 11
17.6 -0.91399997 -0.77200001 9
17.589001 -0.91000003 -0.86400002 8
17.631001 -0.90899998 -0.37599999 18
17.635 -0.90499997 -0.46799999 16
17.634001 -0.90100002 -0.56 9
17.636999 -0.89700001 -0.65499997 14
17.635 -0.89399999 -0.74699998 7
17.636999 -0.88999999 -0.83999997 10
17.656 -0.88800001 -0.34999999 18
17.646999 -0.88300002 -0.442 16
17.718 -0.88300002 -0.53600001 15
17.704 -0.87800002 -0.63 17
17.666 -0.87199998 -0.722 12
17.722 -0.87099999 -0.81699997 12
17.694 -0.86699998 -0.324 14
18.372 -0.89499998 -0.433 16
0 0 0 0
18.423 -0.88999999 -0.62900001 19
18.487 -0.88800001 -0.72799999 17
18.511999 -0.88599998 -0.82700002 15
0 0 0 0
18.667999 -0.88499999 -0.41299999 10
19.330999 -0.912 -0.52899998 17
19.299 -0.90600002 -0.63099998 25
19.313999 -0.90200001 -0.73299998 28
19.322001 -0.898 -0.83499998 20
20.007 -0.926 -0.308 15
20.004 -0.921 -0.41299999 9
19.959999 -0.91399997 -0.51700002 19
19.882999 -0.90600002 -0.62199998 19
19.875999 -0.90100002 -0.72500002 18
19.903 -0.89700001 -0.83099997 14
20.620001 -0.92500001 -0.28799999 18
20.621 -0.92000002 -0.39700001 12
20.642 -0.91600001 -0.505 23
20.650999 -0.91100001 -0.616 23
20.67 -0.90700001 -0.72500002 20
20.773001 -0.90700001 -0.838 16
20.639999 -0.89700001 -0.25999999 18
20.687 -0.89399999 -0.36899999 16
20.753 -0.89099997 -0.479 18
20.871 -0.89099997 -0.59399998 19
20.754 -0.88099998 -0.699 21
21.068001 -0.889 -0.82099998 13
20.995001 -0.88200003 -0.235 18
21.302999 -0.889 -0.34999999 19
21.122999 -0.87599999 -0.458 19
21.479 -0.88499999 -0.58099997 23
21.511 -0.88099998 -0.69499999 20
21.57 -0.87800002 -0.81099999 18
0 0 0 0
0 0 0 0
23.612 -0.94400001 -0.48100001 13
0 0 0 0
0 0 0 0
22.93 -0.898 -0.83099997 11
23.653999 -0.92199999 -0.20100001 28
23.648001 -0.91500002 -0.32499999 33
23.646999 -0.90899998 -0.44999999 17
23.669001 -0.903 -0.57700002 16
23.723 -0.898 -0.70300001 17
23.774 -0.89399999 -0.82999998 15
23.745001 -0.88800001 -0.17 22
23.757 -0.88200003 -0.29499999 21
24.127001 -0.889 -0.42699999 21
24.427 -0.89300001 -0.56300002 17
24.393999 -0.88499999 -0.69099998 16
24.608 -0.88599998 -0.82700002 10
14.125 -0.972 -0.77100003 11
14.091 -0.96899998 -0.84399998 7
14.094 -0.96799999 -0.91799998 6
14.094 -0.96799999 -0.99299997 6
14.088 -0.96700001 -1.067 6
13.756 -0.94300002 -1.114 6
14.123 -0.96600002 -0.74900001 12
14.134 -0.96600002 -0.824 7
14.107 -0.963 -0.89600003 6
14.104 -0.96200001 -0.97100002 5
14.109 -0.96200001 -1.046 6
13.968 -0.95200002 -1.109 5
14.217 -0.96600002 -0.73100001 11
14.249 -0.96700001 -0.80699998 7
14.196 -0.96200001 -0.87900001 7
14.139 -0.958 -0.95099998 6
14.136 -0.95700002 -1.025 5
14.241 -0.963 -1.108 6
14.254 -0.96100003 -0.70999998 12
14.239 -0.95899999 -0.78399998 8
14.273 -0.95999998 -0.861 7
14.271 -0.95899999 -0.93699998 6
14.246 -0.95700002 -1.01 5
14.317 -0.96100003 -1.09 6
14.336 -0.95899999 -0.69099998 10
14.274 -0.954 -0.76300001 8
14.345 -0.95700002 -0.84200001 6
14.328 -0.95499998 -0.917 6
14.35 -0.95599997 -0.99400002 5
14.399 -0.958 -1.073 7
14.444 -0.958 -0.67299998 7
14.427 -0.95599997 -0.74800003 7
14.55 -0.963 -0.82999998 6
14.463 -0.95599997 -0.903 6
14.426 -0.95200002 -0.97600001 6
14.486 -0.95499998 -1.056 7
14.611 -0.95999998 -0.65700001 7
14.495 -0.95099998 -0.72799999 7
14.601 -0.95700002 -0.81 6
14.599 -0.95499998 -0.88700002 6
14.546 -0.94999999 -0.96100003 6
14.564 -0.94999999 -1.038 7
14.614 -0.95099998 -0.634 6
14.614 -0.949 -0.70999998 7
14.621 -0.94800001 -0.787 6
14.619 -0.94700003 -0.86500001 7
14.62 -0.94499999 -0.94199997 6
14.619 -0.94400001 -1.0190001 6
14.612 -0.94 -0.61000001 8
14.626 -0.94 -0.68699998 8
14.658 -0.94 -0.76599997 8
14.708 -0.94199997 -0.847 9
14.654 -0.93699998 -0.92000002 7
14.623 -0.93300003 -0.995 6
14.651 -0.93199998 -0.588 11
14.646 -0.93000001 -0.66500002 9
14.71 -0.93199998 -0.745 8
14.758 -0.93300003 -0.82599998 10
14.72 -0.92900002 -0.90100002 7
14.68 -0.92500001 -0.97500002 5
14.759 -0.92699999 -0.56900001 13
14.767 -0.926 -0.64600003 11
15.096 -0.94400001 -0.73900002 12
14.889 -0.93000001 -0.80900002 10
14.79 -0.921 -0.88099998 7
14.87 -0.92500001 -0.96399999 7
15.148 -0.93900001 -0.55900002 16
15.149 -0.93699998 -0.639 17
15.239 -0.94099998 -0.722 15
15.092 -0.92900002 -0.79500002 9
14.858 -0.91299999 -0.861 8
14.902 -0.91399997 -0.94199997 11
15.286 -0.93400002 -0.54000002 14
15.331 -0.935 -0.62199998 16
15.435 -0.93900001 -0.70599997 14
15.597 -0.94700003 -0.79699999 11
15.044 -0.91100001 -0.84799999 10
14.912 -0.90100002 -0.91900003 11
0 0 0 0
15.696 -0.94300002 -0.61199999 15
15.721 -0.94199997 -0.69499999 16
15.884 -0.949 -0.787 10
15.316 -0.91299999 -0.83899999 11
14.999 -0.89200002 -0.89999998 9
16.677 -0.98900002 -0.53600001 20
16.702999 -0.98699999 -0.62400001 16
16.302 -0.96100003 -0.69499999 16
16.625999 -0.97799999 -0.79699999 15
16.051001 -0.94099998 -0.85399997 10
16.018 -0.93699998 -0.93599999 8
16.809 -0.98000002 -0.514 22
16.801001 -0.97600001 -0.60100001 21
16.688 -0.96700001 -0.685 19
16.788 -0.97000003 -0.778 18
16.714001 -0.963 -0.86199999 10
16.159 -0.92799997 -0.91799998 8
13.723 -0.95499998 -1.076 6
13.6 -0.94700003 -1.1390001 4
12.902 -0.89999998 -1.149 5
12.232 -0.85399997 -1.156 6
12.201 -0.85299999 -1.2180001 5
11.478 -0.80400002 -1.2079999 4
13.707 -0.95700002 -1.056 6
13.579 -0.949 -1.118 5
13.086 -0.91600001 -1.148 6
12.397 -0.86900002 -1.154 3
12.217 -0.85699999 -1.2029999 5
11.602 -0.815 -1.205 4
13.604 -0.95300001 -1.029 8
13.544 -0.94999999 -1.097 5
13.125 -0.921 -1.133 5
12.724 -0.89399999 -1.1670001 3
12.217 -0.85900003 -1.186 6
11.884 -0.83700001 -1.217 4
13.643 -0.958 -1.013 8
13.467 -0.94599998 -1.072 5
13.328 -0.93800002 -1.131 5
12.755 -0.898 -1.152 4
12.239 -0.86299998 -1.171 6
12.108 -0.85399997 -1.223 4
13.647 -0.95999998 -0.99400002 7
13.588 -0.95700002 -1.062 6
13.401 -0.94400001 -1.119 5
12.962 -0.91399997 -1.152 5
12.248 -0.86500001 -1.154 5
12.187 -0.861 -1.2130001 5
13.585 -0.95700002 -0.97000003 8
13.561 -0.95599997 -1.04 7
13.369 -0.94300002 -1.097 5
13.095 -0.92400002 -1.145 5
12.511 -0.884 -1.161 3
12.23 -0.86500001 -1.2 6
13.546 -0.95499998 -0.94800001 7
13.552 -0.95599997 -1.02 8
13.269 -0.93699998 -1.069 4
13.113 -0.926 -1.127 4
12.73 -0.89999998 -1.1619999 4
12.238 -0.86500001 -1.182 6
13.514 -0.95300001 -0.926 8
13.583 -0.958 -1.002 7
13.449 -0.949 -1.064 5
13.188 -0.93099999 -1.114 4
12.834 -0.90700001 -1.152 4
12.253 -0.866 -1.165 6
13.495 -0.95099998 -0.90399998 9
13.581 -0.958 -0.98199999 7
13.569 -0.95700002 -1.053 6
13.292 -0.93800002 -1.103 5
13.059 -0.92199999 -1.153 6
12.316 -0.87 -1.153 4
13.6 -0.958 -0.89099997 8
13.543 -0.954 -0.95899999 7
13.549 -0.95499998 -1.031 7
13.428 -0.94599998 -1.094 5
13.109 -0.92400002 -1.137 5
12.704 -0.89600003 -1.169 4
13.616 -0.95700002 -0.87099999 8
13.551 -0.95300001 -0.93900001 7
13.6 -0.95599997 -1.0140001 7
13.375 -0.94099998 -1.069 5
13.262 -0.93300003 -1.13 4
12.758 -0.898 -1.155 4
13.757 -0.96499997 -0.85900003 7
13.507 -0.94800001 -0.91500002 8
13.678 -0.95999998 -0.99800003 6
13.623 -0.95599997 -1.067 6
13.503 -0.94700003 -1.1289999 5
12.972 -0.91000003 -1.154 6
13.95 -0.97600001 -0.84899998 7
13.677 -0.95700002 -0.90499997 6
13.654 -0.95499998 -0.97500002 7
13.642 -0.954 -1.048 7
13.567 -0.949 -1.114 5
13.102 -0.91600001 -1.145 6
14.035 -0.97899997 -0.833 8
13.806 -0.96200001 -0.89200002 6
13.669 -0.95300001 -0.95499998 6
13.716 -0.95599997 -1.0319999 7
13.574 -0.94599998 -1.0930001 5
13.289 -0.926 -1.14 4
14.092 -0.97899997 -0.81400001 7
14.071 -0.977 -0.88700002 6
13.68 -0.949 -0.93400002 6
14.058 -0.97500002 -1.035 7
13.709 -0.95099998 -1.082 5
13.639 -0.94599998 -1.149 4
14.093 -0.97399998 -0.792 7
14.094 -0.97399998 -0.866 7
13.96 -0.96399999 -0.93099999 6
14.075 -0.972 -1.0140001 6
14.058 -0.97000003 -1.087 6
13.72 -0.94599998 -1.133 5
12.22 -0.741 -1.175 5
12.169 -0.74000001 -1.237 5
11.477 -0.69999999 -1.229 4
10.99 -0.67299998 -1.238 3
10.478 -0.64300001 -1.238 2
10.002 -0.616 -1.237 3
12.231 -0.75099999 -1.166 6
12.174 -0.75 -1.227 5
11.604 -0.71700001 -1.233 3
11.091 -0.68699998 -1.24 3
10.596 -0.65899998 -1.243 2
10.06 -0.62699997 -1.235 3
12.235 -0.76099998 -1.155 5
12.182 -0.75999999 -1.216 4
11.749 -0.73500001 -1.237 3
11.197 -0.70200002 -1.2410001 3
10.696 -0.67299998 -1.244 3
10.154 -0.64099997 -1.237 3
12.275 -0.773 -1.147 4
12.202 -0.76999998 -1.207 5
11.976 -0.75800002 -1.25 4
11.296 -0.71700001 -1.2410001 4
10.78 -0.68599999 -1.244 3
10.248 -0.65399998 -1.238 3
12.251 -0.77999997 -1.133 4
12.217 -0.77999997 -1.196 5
12.122 -0.77600002 -1.253 5
11.375 -0.73000002 -1.239 5
10.868 -0.699 -1.243 3
10.323 -0.66600001 -1.237 3
12.247 -0.78799999 -1.1210001 4
12.221 -0.78799999 -1.184 5
12.166 -0.787 -1.245 5
11.45 -0.74199998 -1.235 4
10.983 -0.71399999 -1.245 2
10.409 -0.67799997 -1.2359999 3
12.25 -0.796 -1.108 5
12.226 -0.796 -1.1720001 4
12.193 -0.796 -1.235 4
11.489 -0.75199997 -1.227 4
11.102 -0.72799999 -1.2460001 3
10.534 -0.69300002 -1.24 2
12.383 -0.81199998 -1.107 4
12.236 -0.80500001 -1.16 5
12.205 -0.80400002 -1.223 5
11.566 -0.764 -1.223 4
11.218 -0.74299997 -1.247 4
10.651 -0.70700002 -1.2410001 2
12.627 -0.83600003 -1.115 4
12.251 -0.81199998 -1.148 4
12.21 -0.81099999 -1.21 5
11.777 -0.78399998 -1.232 5
11.295 -0.75400001 -1.242 5
10.773 -0.72100002 -1.243 2
12.793 -0.85399997 -1.115 5
12.382 -0.82800001 -1.146 4
12.219 -0.81900001 -1.196 6
12.029 -0.80800003 -1.244 5
11.379 -0.76599997 -1.238 5
10.921 -0.736 -1.248 2
13.166 -0.88499999 -1.132 6
12.505 -0.84200001 -1.142 4
12.232 -0.82599998 -1.183 6
12.145 -0.82099998 -1.242 5
11.488 -0.778 -1.237 5
11.045 -0.75 -1.249 2
13.615 -0.92199999 -1.155 6
12.629 -0.85699999 -1.1390001 5
12.23 -0.83099997 -1.169 6
12.174 -0.829 -1.23 5
11.492 -0.78399998 -1.223 4
11.175 -0.764 -1.25 4
14.034 -0.95599997 -1.173 7
12.906 -0.88099998 -1.148 5
12.245 -0.838 -1.155 5
12.191 -0.83499998 -1.216 4
11.514 -0.79000002 -1.211 4
11.235 -0.77200001 -1.242 4
13.986 -0.95899999 -1.152 6
13.089 -0.89899999 -1.148 6
12.442 -0.85600001 -1.158 4
12.21 -0.84100002 -1.2029999 5
11.712 -0.80800003 -1.217 4
11.364 -0.78600001 -1.242 5
13.712 -0.94499999 -1.1109999 6
13.133 -0.90700001 -1.1339999 6
12.703 -0.87800002 -1.165 5
12.22 -0.84600002 -1.188 6
11.96 -0.82999998 -1.227 4
11.499 -0.79900002 -1.2410001 5
13.633 -0.94400001 -1.087 5
13.46 -0.93400002 -1.145 5
12.742 -0.88499999 -1.152 5
12.226 -0.85000002 -1.1720001 6
12.154 -0.847 -1.23 5
11.499 -0.80199999 -1.226 5
11.775 -0.52700001 -1.2309999 4
11.155 -0.50099999 -1.229 4
10.662 -0.48199999 -1.234 2
10.124 -0.46000001 -1.23 3
9.7589998 -0.44499999 -1.24 2
9.309 -0.42699999 -1.2359999 2
11.801 -0.542 -1.2309999 3
11.171 -0.51499999 -1.228 4
10.681 -0.495 -1.234 2
10.145 -0.472 -1.23 3
9.7779999 -0.45699999 -1.24 2
9.3210001 -0.43799999 -1.235 2
11.825 -0.55599999 -1.2309999 3
11.207 -0.52899998 -1.229 4
10.7 -0.50800002 -1.233 2
10.164 -0.484 -1.229 2
9.7650003 -0.46799999 -1.2359999 2
9.3280001 -0.449 -1.233 3
11.854 -0.56999999 -1.23 3
11.251 -0.54400003 -1.23 5
10.719 -0.51999998 -1.232 2
10.217 -0.498 -1.233 1
9.7700005 -0.479 -1.233 2
9.3699999 -0.461 -1.2359999 3
11.906 -0.58600003 -1.232 3
11.304 -0.55800003 -1.232 5
10.744 -0.53299999 -1.2309999 2
10.259 -0.51099998 -1.234 1
9.7860003 -0.49000001 -1.232 2
9.408 -0.47299999 -1.237 4
12.011 -0.60399997 -1.238 3
11.347 -0.57300001 -1.233 4
10.801 -0.54699999 -1.233 2
10.297 -0.52399999 -1.234 1
9.8269997 -0.50199997 -1.233 2
9.4379997 -0.48500001 -1.237 4
12.098 -0.62099999 -1.242 4
11.4 -0.58700001 -1.233 3
10.841 -0.56099999 -1.233 2
10.328 -0.537 -1.233 1
9.8690004 -0.51499999 -1.234 2
9.4619999 -0.49599999 -1.2359999 4
12.164 -0.63700002 -1.243 4
11.461 -0.602 -1.235 3
10.917 -0.57599998 -1.237 2
10.378 -0.55000001 -1.234 1
9.934 -0.528 -1.237 2
9.5059996 -0.50800002 -1.2359999 4
12.162 -0.64899999 -1.237 4
11.518 -0.61699998 -1.235 3
10.965 -0.58999997 -1.2359999 3
10.422 -0.56300002 -1.234 1
9.9790001 -0.54100001 -1.237 2
9.5410004 -0.51899999 -1.2359999 4
12.185 -0.662 -1.232 4
11.539 -0.62900001 -1.2309999 2
11.013 -0.60299999 -1.235 4
10.508 -0.57800001 -1.238 1
10.017 -0.55299997 -1.2359999 3
9.5909996 -0.53100002 -1.237 4
12.194 -0.67500001 -1.226 5
11.629 -0.64499998 -1.233 2
11.059 -0.616 -1.234 4
10.57 -0.59100002 -1.239 2
10.052 -0.56400001 -1.234 2
9.6409998 -0.54299998 -1.237 4
12.198 -0.68599999 -1.219 5
11.75 -0.66299999 -1.239 2
11.125 -0.63 -1.234 5
10.652 -0.60600001 -1.242 2
10.094 -0.57599998 -1.232 2
9.6879997 -0.55500001 -1.237 4
12.217 -0.699 -1.2130001 6
11.88 -0.68199998 -1.244 2
11.181 -0.64399999 -1.233 5
10.717 -0.61900002 -1.242 2
10.156 -0.58899999 -1.233 2
9.7270002 -0.56599998 -1.235 3
12.215 -0.70899999 -1.204 6
12.021 -0.70099998 -1.251 3
11.261 -0.65799999 -1.233 4
10.782 -0.63300002 -1.2410001 3
10.221 -0.602 -1.233 3
9.8109999 -0.57999998 -1.238 2
12.215 -0.72000003 -1.1950001 6
12.13 -0.71700001 -1.253 3
11.349 -0.67400002 -1.234 4
10.846 -0.64600003 -1.24 3
10.295 -0.61500001 -1.234 2
9.868 -0.59200001 -1.237 2
12.235 -0.73199999 -1.187 7
12.156 -0.72899997 -1.2460001 4
11.424 -0.68800002 -1.233 5
10.913 -0.65899998 -1.239 3
10.382 -0.62900001 -1.2359999 2
9.9519997 -0.60500002 -1.239 3
12.038 -0.31 -1.224 3
11.374 -0.29499999 -1.221 3
10.779 -0.28200001 -1.219 2
10.195 -0.26800001 -1.212 4
9.8009996 -0.25999999 -1.222 1
9.3409996 -0.25 -1.2180001 2
12.002 -0.32300001 -1.226 2
11.325 -0.30700001 -1.222 4
10.74 -0.29300001 -1.22 2
10.181 -0.28 -1.216 5
9.7489996 -0.27000001 -1.22 1
9.3120003 -0.25999999 -1.219 2
11.95 -0.336 -1.226 2
11.277 -0.31900001 -1.222 4
10.695 -0.30500001 -1.22 2
10.172 -0.292 -1.219 5
9.724 -0.28200001 -1.221 1
9.2969999 -0.271 -1.221 2
11.868 -0.34799999 -1.223 3
11.237 -0.33199999 -1.222 4
10.675 -0.317 -1.222 2
10.158 -0.30399999 -1.222 4
9.7110004 -0.29300001 -1.224 1
9.2799997 -0.28200001 -1.223 2
11.831 -0.361 -1.224 2
11.209 -0.345 -1.223 4
10.643 -0.33000001 -1.222 2
10.116 -0.315 -1.221 4
9.6899996 -0.30399999 -1.225 1
9.2670002 -0.29300001 -1.224 2
11.794 -0.37400001 -1.224 2
11.183 -0.35699999 -1.224 4
10.641 -0.34200001 -1.226 3
10.127 -0.32800001 -1.225 4
9.698 -0.31600001 -1.229 2
9.2539997 -0.30399999 -1.225 2
11.761 -0.38699999 -1.224 2
11.138 -0.36899999 -1.223 3
10.605 -0.354 -1.224 2
10.119 -0.34 -1.227 5
9.6820002 -0.32699999 -1.229 1
9.2399998 -0.31400001 -1.226 2
11.742 -0.40099999 -1.225 3
11.144 -0.38299999 -1.226 2
10.569 -0.36500001 -1.223 2
10.128 -0.352 -1.23 5
9.6499996 -0.338 -1.227 2
9.2379999 -0.32600001 -1.228 2
11.723 -0.414 -1.226 4
11.133 -0.396 -1.227 2
10.549 -0.377 -1.222 2
10.113 -0.36399999 -1.23 4
9.6330004 -0.34900001 -1.227 2
9.2349997 -0.33700001 -1.229 2
11.737 -0.42899999 -1.229 5
11.121 -0.40900001 -1.227 2
10.536 -0.38999999 -1.222 2
10.115 -0.37599999 -1.232 4
9.6350002 -0.361 -1.228 3
9.2480001 -0.34799999 -1.232 3
11.732 -0.44299999 -1.23 5
11.112 -0.42199999 -1.227 2
10.546 -0.40200001 -1.225 3
10.12 -0.38800001 -1.233 4
9.6590004 -0.373 -1.232 4
9.2530003 -0.359 -1.233 3
11.722 -0.456 -1.23 4
11.122 -0.435 -1.229 2
10.54 -0.41499999 -1.224 2
10.125 -0.40099999 -1.235 4
9.6499996 -0.384 -1.2309999 3
9.2609997 -0.37099999 -1.234 4
11.719 -0.47 -1.229 4
11.12 -0.44800001 -1.229 2
10.551 -0.428 -1.226 2
10.134 -0.41299999 -1.2359999 5
9.6660004 -0.396 -1.233 3
9.2779999 -0.38299999 -1.237 3
11.709 -0.484 -1.228 4
11.123 -0.46200001 -1.229 2
10.585 -0.442 -1.229 2
10.127 -0.42500001 -1.234 5
9.6850004 -0.40900001 -1.235 2
9.2799997 -0.39300001 -1.2359999 3
11.739 -0.498 -1.23 4
11.143 -0.47499999 -1.2309999 3
10.62 -0.45500001 -1.233 2
10.112 -0.43599999 -1.232 5
9.6920004 -0.41999999 -1.235 2
9.2939997 -0.405 -1.237 3
11.75 -0.51200002 -1.23 4
11.142 -0.48800001 -1.229 3
10.63 -0.46799999 -1.232 2
10.133 -0.44800001 -1.233 4
9.7349997 -0.433 -1.239 2
9.309 -0.41600001 -1.238 2
12.697 -0.1 -1.109 6
12.208 -0.097999997 -1.137 6
12.153 -0.098999999 -1.202 4
11.498 -0.094999999 -1.205 3
10.797 -0.090999998 -1.1950001 2
10.214 -0.086999997 -1.1900001 3
12.566 -0.111 -1.112 6
12.21 -0.11 -1.152 5
12.076 -0.11 -1.209 3
11.35 -0.105 -1.2029999 2
10.706 -0.101 -1.197 2
10.177 -0.097999997 -1.198 4
12.327 -0.122 -1.1059999 5
12.198 -0.122 -1.165 6
11.952 -0.122 -1.211 2
11.184 -0.116 -1.199 2
10.593 -0.111 -1.197 2
10.128 -0.108 -1.204 4
12.233 -0.134 -1.1109999 6
12.197 -0.13500001 -1.179 5
11.793 -0.133 -1.2079999 2
11.067 -0.126 -1.199 2
10.46 -0.121 -1.194 2
10.026 -0.117 -1.2029999 3
12.22 -0.147 -1.123 6
12.177 -0.148 -1.1900001 4
11.659 -0.14399999 -1.207 2
10.994 -0.13699999 -1.2029999 2
10.363 -0.131 -1.194 2
9.9399996 -0.127 -1.2029999 2
12.214 -0.16 -1.136 6
12.163 -0.161 -1.201 4
11.587 -0.155 -1.211 2
10.93 -0.148 -1.207 2
10.274 -0.141 -1.194 3
9.8809996 -0.13699999 -1.206 2
12.227 -0.17299999 -1.149 8
12.162 -0.17399999 -1.2130001 4
11.475 -0.16599999 -1.211 2
10.831 -0.15899999 -1.207 2
10.217 -0.152 -1.197 3
9.835 -0.148 -1.21 2
12.228 -0.18700001 -1.161 8
12.109 -0.18700001 -1.219 3
11.391 -0.178 -1.2130001 2
10.728 -0.169 -1.205 2
10.174 -0.162 -1.202 2
9.7679996 -0.15800001 -1.211 1
12.202 -0.2 -1.17 6
11.983 -0.198 -1.2180001 2
11.291 -0.189 -1.212 2
10.649 -0.18000001 -1.206 2
10.154 -0.17399999 -1.209 2
9.6990004 -0.168 -1.211 2
12.181 -0.213 -1.178 4
11.878 -0.20999999 -1.217 3
11.206 -0.2 -1.2130001 2
10.545 -0.19 -1.2029999 3
10.123 -0.185 -1.214 2
9.6289997 -0.177 -1.21 2
12.172 -0.227 -1.187 4
11.751 -0.221 -1.214 4
11.122 -0.212 -1.2130001 2
10.472 -0.20100001 -1.204 4
10.069 -0.19499999 -1.215 3
9.5410004 -0.18700001 -1.207 3
12.17 -0.241 -1.197 4
11.676 -0.234 -1.215 3
11.057 -0.223 -1.214 2
10.41 -0.212 -1.205 4
10.026 -0.206 -1.2180001 3
9.5380001 -0.198 -1.214 4
12.154 -0.255 -1.204 5
11.615 -0.24600001 -1.2180001 3
10.988 -0.235 -1.215 3
10.371 -0.22400001 -1.2079999 3
9.9729996 -0.21699999 -1.219 3
9.5010004 -0.20900001 -1.216 3
12.149 -0.26899999 -1.212 4
11.542 -0.25799999 -1.2180001 2
10.928 -0.24600001 -1.216 3
10.326 -0.235 -1.209 4
9.9320002 -0.228 -1.221 3
9.4350004 -0.21799999 -1.214 2
12.127 -0.28299999 -1.2180001 4
11.483 -0.27000001 -1.219 2
10.9 -0.259 -1.22 3
10.266 -0.24600001 -1.209 4
9.8839998 -0.23800001 -1.221 3
9.3870001 -0.228 -1.214 2
12.086 -0.296 -1.222 3
11.422 -0.28200001 -1.22 2
10.845 -0.27000001 -1.22 2
10.222 -0.257 -1.21 4
9.8540001 -0.25 -1.223 1
9.3439999 -0.23899999 -1.214 2
17.298 0.083999999 -1.096 13
16.089001 0.077 -1.113 7
14.657 0.068999998 -1.1 8
13.398 0.061999999 -1.085 6
12.605 0.057 -1.094 5
12.208 0.055 -1.132 5
16.273001 0.068999998 -1.059 5
15.573 0.064999998 -1.104 7
14.116 0.057999998 -1.0829999 6
13.088 0.052999999 -1.082 5
12.254 0.048 -1.085 5
12.177 0.046999998 -1.15 4
16.205999 0.059 -1.082 8
15.263 0.054000001 -1.108 7
14.054 0.048999999 -1.103 7
12.912 0.044 -1.09 6
12.217 0.041000001 -1.102 5
12.176 0.039000001 -1.17 4
16.195 0.048 -1.109 8
15.18 0.044 -1.128 7
13.64 0.037999999 -1.0930001 6
12.701 0.035 -1.0930001 5
12.203 0.032000002 -1.122 5
12.153 0.030999999 -1.188 5
15.863 0.035999998 -1.112 7
14.567 0.032000002 -1.1059999 7
13.126 0.028000001 -1.073 5
12.475 0.025 -1.094 5
12.215 0.024 -1.143 6
12.088 0.022 -1.202 3
15.365 0.024 -1.102 6
14.083 0.021 -1.092 7
13.087 0.017999999 -1.091 6
12.241 0.016000001 -1.0930001 4
12.183 0.015 -1.16 5
11.813 0.013 -1.194 2
15.256 0.013 -1.119 7
14.026 0.011 -1.11 7
12.857 0.0080000004 -1.0930001 6
12.21 0.0070000002 -1.11 5
12.176 0.0060000001 -1.178 4
11.647 0.0040000002 -1.1950001 2
14.96 0.001 -1.12 7
13.498 0 -1.089 6
12.691 -0.001 -1.098 6
12.209 -0.0020000001 -1.1289999 5
12.144 -0.003 -1.194 3
11.468 -0.0040000002 -1.1950001 2
14.52 -0.0089999996 -1.11 7
13.122 -0.0099999998 -1.079 5
12.488 -0.011 -1.1 5
12.191 -0.012 -1.146 5
12.078 -0.013 -1.206 3
11.259 -0.013 -1.1900001 2
14.09 -0.02 -1.098 6
13.079 -0.02 -1.095 5
12.239 -0.02 -1.096 5
12.18 -0.022 -1.163 5
11.879 -0.022 -1.2029999 2
11.081 -0.022 -1.187 2
14.029 -0.032000002 -1.113 6
12.897 -0.030999999 -1.098 5
12.228 -0.030999999 -1.112 7
12.159 -0.032000002 -1.178 4
11.697 -0.032000002 -1.202 2
10.896 -0.030999999 -1.183 2
13.642 -0.043000001 -1.102 5
12.723 -0.041999999 -1.102 6
12.214 -0.041999999 -1.1289999 6
12.153 -0.043000001 -1.1950001 4
11.458 -0.041999999 -1.194 2
10.812 -0.041000001 -1.1900001 2
13.199 -0.054000001 -1.084 4
12.573 -0.052999999 -1.1059999 6
12.201 -0.052000001 -1.1440001 4
12.089 -0.054000001 -1.205 3
11.31 -0.052000001 -1.194 3
10.738 -0.050000001 -1.196 2
13.095 -0.064999998 -1.094 5
12.315 -0.063000001 -1.1 6
12.183 -0.064000003 -1.159 4
11.932 -0.064000003 -1.206 2
11.184 -0.061000001 -1.1950001 2
10.586 -0.059 -1.193 2
13.06 -0.077 -1.108 5
12.226 -0.074000001 -1.108 6
12.177 -0.075000003 -1.174 4
11.75 -0.074000001 -1.202 2
10.994 -0.071000002 -1.189 2
10.475 -0.068999998 -1.194 2
12.897 -0.089000002 -1.11 6
12.215 -0.086000003 -1.122 5
12.173 -0.086999997 -1.189 5
11.616 -0.085000001 -1.2029999 2
10.876 -0.081 -1.1900001 2
10.31 -0.078000002 -1.188 2
33.039001 0.317 -1.0829999 10
27.503 0.264 -1.062 15
24.313 0.234 -1.081 15
21.52 0.207 -1.085 13
19.275 0.186 -1.084 7
0 0 0 0
30.149 0.28799999 -1.049 23
27.045 0.259 -1.099 14
0 0 0 0
21.125999 0.20299999 -1.108 11
18.620001 0.17900001 -1.085 15
16.242001 0.156 -1.0420001 7
30.033001 0.285 -1.1059999 1
24.929001 0.237 -1.064 8
22.158001 0.211 -1.075 11
0 0 0 0
18.268999 0.17399999 -1.102 19
16.205 0.154 -1.072 8
27.423 0.25799999 -1.0650001 21
24.229 0.228 -1.0829999 15
21.466999 0.20200001 -1.085 13
19.247 0.18099999 -1.087 9
0 0 0 0
16.184 0.152 -1.104 8
27.044001 0.25 -1.104 11
0 0 0 0
21.127001 0.19499999 -1.109 10
18.579 0.17200001 -1.086 16
16.232 0.15000001 -1.044 7
15.71 0.145 -1.103 8
24.815001 0.22499999 -1.063 9
22.107 0.20100001 -1.075 11
0 0 0 0
18.275999 0.16599999 -1.105 19
16.205 0.147 -1.075 8
15.245 0.138 -1.1 8
24.209999 0.215 -1.084 15
21.440001 0.19 -1.085 13
19.27 0.17 -1.0880001 10
0 0 0 0
16.181 0.14300001 -1.105 8
15.168 0.133 -1.124 7
24.030001 0.207 -1.123 10
21.121 0.182 -1.11 10
18.618 0.16 -1.087 14
16.215 0.139 -1.043 8
15.683 0.134 -1.101 7
14.234 0.121 -1.0829999 6
22.094999 0.184 -1.075 12
0 0 0 0
18.277 0.152 -1.102 18
16.195 0.134 -1.073 8
15.262 0.126 -1.101 8
13.667 0.112 -1.066 5
21.479 0.17200001 -1.086 13
19.280001 0.154 -1.087 10
0 0 0 0
16.176001 0.12800001 -1.103 8
15.097 0.119 -1.118 7
13.083 0.103 -1.045 5
21.129999 0.162 -1.108 9
18.700001 0.14300001 -1.09 14
16.243 0.123 -1.0420001 8
15.702 0.119 -1.101 7
14.23 0.107 -1.081 7
13.01 0.097000003 -1.0650001 5
0 0 0 0
18.292 0.132 -1.101 15
16.205999 0.117 -1.0700001 8
15.259 0.109 -1.098 8
13.672 0.097000003 -1.064 5
12.949 0.090999998 -1.0829999 5
19.288 0.132 -1.0829999 9
18.240999 0.124 -1.131 16
16.188999 0.11 -1.099 7
15.125 0.102 -1.1160001 7
13.303 0.089000002 -1.0599999 5
12.688 0.083999999 -1.085 6
18.750999 0.12 -1.0880001 14
16.285 0.103 -1.04 6
15.827 0.1 -1.103 7
14.425 0.090000004 -1.091 8
13.076 0.081 -1.066 5
12.432 0.075999998 -1.086 4
18.287001 0.108 -1.094 14
16.221001 0.094999999 -1.0650001 5
15.302 0.089000002 -1.094 8
13.933 0.079999998 -1.079 6
13.021 0.074000001 -1.085 5
12.236 0.068999998 -1.091 6
18.249001 0.097999997 -1.124 22
16.191999 0.086000003 -1.092 6
15.249 0.079999998 -1.117 7
13.638 0.071000002 -1.08 6
12.756 0.066 -1.085 6
12.22 0.061999999 -1.1109999 6
291.453 1.402 0.088 166
176.619 0.86900002 -0.97799999 8
57.444 0.28799999 -0.65200001 39
57.466999 0.294 -0.99400002 31
43.27 0.226 -1.001 16
36.805 0.19599999 -1.066 28
291.47501 1.572 -0.509 72
57.505001 0.31600001 -0.43599999 26
57.435001 0.32100001 -0.77100003 27
48.744999 0.27700001 -0.94300002 19
40.844002 0.236 -1.029 13
36.777 0.21600001 -1.141 2
172.013 1.021 -0.65399998 17
57.460999 0.34599999 -0.55400002 39
57.443001 0.35100001 -0.889 37
45.448002 0.28200001 -0.97299999 18
37.632 0.237 -1.026 12
33.049 0.211 -1.094 16
176.57001 1.137 -1.036 12
57.455002 0.375 -0.67299998 37
57.471001 0.38 -1.008 21
41.993999 0.28099999 -0.98699999 14
36.787998 0.25 -1.079 25
30.322001 0.208 -1.067 21
57.509998 0.39700001 -0.45699999 25
57.446999 0.40200001 -0.79299998 32
48.111 0.34 -0.94400001 20
38.426998 0.27500001 -0.98199999 10
33.354 0.241 -1.048 9
30.033001 0.22 -1.119 13
57.463001 0.42199999 -0.57599998 42
57.441002 0.426 -0.91000003 27
44.813999 0.336 -0.972 18
36.903 0.27900001 -1.0190001 11
33.025002 0.252 -1.105 10
27.436001 0.212 -1.079 20
57.446999 0.44400001 -0.69400001 40
57.493 0.449 -1.03 11
41.669998 0.32800001 -0.99000001 16
36.757999 0.292 -1.092 17
30.111 0.241 -1.071 23
27.040001 0.219 -1.12 14
57.444 0.465 -0.815 33
46.959999 0.38299999 -0.94 19
0 0 0 0
33.169998 0.27500001 -1.0549999 18
28.041 0.234 -1.056 10
24.707001 0.208 -1.075 10
57.471001 0.484 -0.935 37
43.842999 0.37099999 -0.96799999 16
36.828999 0.31400001 -1.029 16
30.542 0.26199999 -1.035 14
27.191 0.235 -1.081 20
24.108999 0.20999999 -1.099 15
0 0 0 0
41.344002 0.36199999 -1 15
36.780998 0.324 -1.104 3
30.049 0.266 -1.08 24
27.047001 0.241 -1.131 1
22.254 0.199 -1.061 10
46.015999 0.41100001 -0.93900001 18
0 0 0 0
33.105999 0.29899999 -1.062 17
27.790001 0.252 -1.057 10
24.556999 0.22400001 -1.077 12
21.822001 0.2 -1.085 13
43.111 0.39399999 -0.96799999 17
36.803001 0.338 -1.0420001 18
30.389999 0.28 -1.038 23
27.105 0.25099999 -1.087 18
0 0 0 0
21.195999 0.198 -1.099 11
40.908001 0.38100001 -1.005 14
33.618 0.31400001 -1.021 9
30.039 0.28200001 -1.0880001 18
25.023001 0.236 -1.056 6
22.219999 0.20999999 -1.068 10
21.094 0.2 -1.137 11
0 0 0 0
33.034 0.31299999 -1.072 16
27.629999 0.26199999 -1.058 12
24.444 0.233 -1.082 16
21.65 0.207 -1.085 13
21.07 0.20200001 -1.179 5
36.782001 0.34999999 -1.0549999 20
30.235001 0.289 -1.044 23
27.070999 0.259 -1.0930001 17
0 0 0 0
21.146999 0.204 -1.103 11
18.698999 0.18099999 -1.085 13
33.487999 0.31999999 -1.029 10
30.034 0.28799999 -1.098 12
25.024 0.241 -1.061 7
22.184999 0.214 -1.072 10
21.091999 0.204 -1.143 11
18.277 0.177 -1.098 20
50.171001 -0.46599999 1.581 25
57.473 -0.523 1.477 16
57.466999 -0.51200002 1.143 27
57.469002 -0.50199997 0.80299997 40
57.486 -0.491 0.46900001 46
57.480999 -0.48100001 0.134 41
54.521999 -0.44499999 1.619 32
57.449001 -0.458 1.372 46
57.455002 -0.44800001 1.038 29
57.453999 -0.43799999 0.69800001 46
57.487999 -0.428 0.36399999 40
57.477001 -0.417 0.029999999 44
54.554001 -0.38499999 1.5190001 29
57.445999 -0.396 1.266 34
57.451 -0.38499999 0.93099999 28
57.467999 -0.375 0.59100002 41
57.497002 -0.366 0.25799999 32
57.477001 -0.35499999 -0.075999998 46
57.478001 -0.34400001 1.494 37
57.457001 -0.33399999 1.158 27
57.467999 -0.324 0.82300001 30
57.494999 -0.315 0.484 35
57.508999 -0.30500001 0.15000001 37
57.497002 -0.296 -0.183 41
57.476002 -0.285 1.386 42
57.448002 -0.27500001 1.051 29
57.467999 -0.266 0.71600002 27
57.526001 -0.25600001 0.37599999 16
57.551998 -0.24699999 0.041000001 26
57.506001 -0.237 -0.29300001 5
57.464001 -0.227 1.275 34
57.450001 -0.21699999 0.94 45
57.497002 -0.208 0.60600001 27
132.685 -0.45899999 0.61299998 22
132.66701 -0.43900001 -0.15899999 8
57.558998 -0.18099999 -0.403 10
57.451 -0.171 1.165 27
57.445 -0.162 0.829 30
57.479 -0.153 0.495 10
153.291 -0.38600001 0.41499999 7
153.27 -0.36199999 -0.47799999 11
57.493999 -0.126 -0.514 21
57.446999 -0.117 1.054 32
57.472 -0.108 0.71899998 30
170.38 -0.296 1.138 5
163.20799 -0.259 0.122 5
168.231 -0.242 -0.852 13
57.474998 -0.074000001 -0.625 34
57.456001 -0.064999998 0.94099998 32
57.486 -0.057 0.60600001 32
0 0 0 0
173.87601 -0.122 -0.20900001 15
57.521 -0.032000002 -0.403 10
57.456001 -0.023 -0.73799998 37
57.452999 -0.015 0.82700002 25
57.522999 -0.0070000002 0.493 7
254.849 0.001 0.704 8
171.78101 0.024 -0.54299998 24
57.492001 0.016000001 -0.51700002 32
57.449001 0.024 -0.85100001 41
57.467999 0.032000002 0.71499997 25
188.431 0.12899999 1.248 17
291.49701 0.241 0.229 8
170.672 0.164 -0.87900001 6
57.470001 0.063000001 -0.63099998 40
57.477001 0.071000002 -0.96700001 41
57.499001 0.078000002 0.60000002 26
290.58099 0.433 1.336 35
173.82401 0.28200001 -0.215 12
57.521999 0.1 -0.412 14
57.457001 0.108 -0.74699998 43
57.490002 0.115 -1.082 12
57.525002 0.122 0.484 4
290.51401 0.653 0.75400001 11
172.002 0.40799999 -0.55800003 18
57.485001 0.14300001 -0.52700001 39
57.452999 0.15000001 -0.861 39
0 0 0 0
188.60899 0.53799999 1.207 14
291.41299 0.86500001 0.168 21
174.802 0.54000002 -0.92000002 8
57.450001 0.184 -0.64300001 29
57.455002 0.191 -0.97899997 38
0 0 0 0
290.60901 1.03 1.27 20
291.392 1.066 -0.42500001 57
57.522999 0.21600001 -0.419 20
57.438999 0.223 -0.759 38
57.493 0.23 -1.096 6
41.206001 0.169 -1.026 15
0 0 0 0
172.20399 0.741 -0.60100001 26
57.487 0.25299999 -0.53500003 32
57.438999 0.259 -0.87599999 26
46.164001 0.213 -0.97399998 17
0 0 0 0
30.469999 -0.94199997 1.732 12
30.540001 -0.93599999 1.559 10
32.646999 -0.99299997 1.478 6
32.637001 -0.98400003 1.286 4
32.603001 -0.97399998 1.097 1
30.301001 -0.898 0.84500003 8
0 0 0 0
32.650002 -0.95099998 1.623 16
32.646999 -0.94300002 1.434 11
32.638 -0.93400002 1.242 14
0 0 0 0
31.106001 -0.875 0.82499999 12
33.120998 -0.92400002 1.7920001 12
33.151001 -0.91600001 1.601 10
35.645 -0.977 1.516 11
35.654999 -0.96799999 1.307 3
32.700001 -0.87900001 1.01 8
32.647999 -0.87 0.81999999 20
0 0 0 0
33.650002 -0.88 1.5779999 18
35.688 -0.92500001 1.467 20
35.650002 -0.91500002 1.256 12
35.659 -0.90600002 1.05 14
35.657001 -0.898 0.84399998 17
36.611 -0.91399997 1.876 22
33.644001 -0.83099997 1.528 9
0 0 0 0
0 0 0 0
0 0 0 0
38.134998 -0.90499997 0.847 2
37.278 -0.87599999 1.854 12
38.735001 -0.90100002 1.702 15
41.084999 -0.94599998 1.568 2
38.749001 -0.88300002 1.25 14
41.310001 -0.93199998 1.094 4
41.428001 -0.92500001 0.85799998 4
33.543999 -0.741 1.618 17
40.873001 -0.89300001 1.734 14
41.085999 -0.88800001 1.505 18
41.257999 -0.88200003 1.2690001 24
41.521 -0.87800002 1.036 24
41.648998 -0.87099999 0.79900002 25
33.521999 -0.69300002 1.5650001 16
43.284 -0.88599998 1.77 15
41.221001 -0.833 1.446 14
43.814999 -0.87599999 1.278 16
43.569 -0.861 1.0190001 15
44.154999 -0.86199999 0.77700001 10
41.535 -0.80199999 1.873 15
44.645 -0.85100001 1.7539999 16
46.563 -0.87800002 1.5599999 5
44.681 -0.83200002 1.233 32
44.687 -0.82200003 0.97399998 24
44.661999 -0.81199998 0.71499997 27
43.127998 -0.77399999 1.875 18
48.308998 -0.85699999 1.8200001 22
47.035999 -0.82300001 1.499 19
50.160999 -0.86699998 1.303 10
50.202999 -0.85699999 1.013 4
47.451 -0.80000001 0.68300003 25
44.599998 -0.74199998 1.8660001 19
49.883999 -0.81900001 1.798 22
50.237999 -0.81300002 1.5190001 10
52.444 -0.838 1.276 22
54.597 -0.861 1.013 7
54.584 -0.84899998 0.69599998 6
46.416 -0.71200001 1.865 19
50.013 -0.75700003 1.72 16
50.460999 -0.75300002 1.442 13
57.469002 -0.84500003 1.303 7
57.495998 -0.83399999 0.97100002 14
57.566002 -0.82300001 0.63800001 16
48.185001 -0.67799997 1.855 21
50.080002 -0.69499999 1.638 14
54.048 -0.73799998 1.4529999 25
57.473 -0.773 1.206 46
57.500999 -0.76200002 0.87199998 15
57.507 -0.75 0.53899997 47
49.889 -0.63999999 1.835 29
50.199001 -0.634 1.5549999 16
57.476002 -0.71399999 1.447 31
57.476002 -0.70300001 1.107 37
57.507999 -0.69199997 0.77499998 5
57.5 -0.68099999 0.44100001 48
49.992001 -0.58099997 1.752 28
54.498001 -0.62300003 1.5930001 39
57.466 -0.64600003 1.347 42
57.464001 -0.63499999 1.007 42
57.479 -0.62300003 0.67400002 45
57.479 -0.61199999 0.34 41
50.084 -0.523 1.668 29
54.526001 -0.55900002 1.498 32
57.471001 -0.57800001 1.245 45
57.460999 -0.56699997 0.90499997 40
57.498001 -0.55699998 0.57200003 43
57.493 -0.546 0.23899999 45
17.243999 -0.97899997 1.261 10
17.636 -0.99599999 1.189 16
17.610001 -0.98900002 1.086 13
17.642 -0.98500001 0.986 13
17.642 -0.98000002 0.88599998 19
17.639999 -0.97500002 0.78500003 23
18.17 -1.001 1.3150001 18
17.796 -0.97500002 1.187 14
17.738001 -0.96700001 1.081 17
17.663 -0.95700002 0.97399998 14
17.648001 -0.95099998 0.87300003 13
17.649 -0.94599998 0.773 18
18.660999 -0.99699998 1.337 18
18.618 -0.98900002 1.227 11
18.395 -0.972 1.107 14
0 0 0 0
17.705 -0.92500001 0.86199999 12
17.694 -0.91900003 0.76099998 13
19.245001 -0.99699998 1.363 12
19.240999 -0.991 1.253 11
19.245001 -0.98500001 1.143 11
19.061001 -0.97000003 1.021 8
18.653999 -0.94400001 0.89300001 8
18.518 -0.93099999 0.78100002 9
19.254999 -0.96499997 1.348 11
19.283001 -0.96100003 1.239 9
19.282 -0.95499998 1.1289999 8
19.296 -0.94999999 1.017 8
19.344 -0.94700003 0.90899998 8
19.274 -0.93800002 0.796 11
0 0 0 0
20.219 -0.97399998 1.2819999 17
20.086 -0.96200001 1.158 16
20.308001 -0.96600002 1.053 11
20.393 -0.96499997 0.94 9
20.115999 -0.94599998 0.81300002 8
20.635 -0.96600002 1.4069999 17
20.653999 -0.96100003 1.29 20
20.629999 -0.954 1.17 18
20.622 -0.94700003 1.05 10
20.622 -0.94199997 0.93199998 9
20.621 -0.93599999 0.81300002 9
20.818001 -0.94099998 1.4 14
20.77 -0.93300003 1.277 13
20.709 -0.92400002 1.155 13
20.695 -0.917 1.033 8
20.650999 -0.90899998 0.91299999 8
20.632 -0.90200001 0.79400003 8
21.593 -0.94099998 1.4299999 18
23.575001 -1.02 1.426 5
23.617001 -1.015 1.293 8
23.624001 -1.008 1.155 8
23.638 -1.002 1.02 5
20.753 -0.87400001 0.77700001 10
23.084 -0.96799999 1.505 12
23.634001 -0.98400003 1.405 15
23.629999 -0.97799999 1.2690001 13
23.629 -0.97100002 1.131 14
23.629999 -0.96399999 0.995 10
23.632999 -0.95700002 0.86000001 19
23.669001 -0.95499998 1.517 13
23.657 -0.94700003 1.38 13
23.652 -0.94 1.244 13
23.638 -0.93300003 1.105 11
23.627001 -0.926 0.96899998 11
23.615999 -0.91900003 0.833 19
23.965 -0.92799997 1.5089999 14
24.268999 -0.93300003 1.3890001 17
0 0 0 0
23.891001 -0.90499997 1.09 9
23.714001 -0.89200002 0.94599998 10
24.280001 -0.90700001 0.829 21
0 0 0 0
25.068001 -0.92400002 1.405 12
25.065001 -0.917 1.261 12
25.042 -0.90899998 1.113 10
24.796 -0.89300001 0.95999998 13
25.084 -0.89700001 0.82700002 11
26.806999 -0.95300001 1.625 12
0 0 0 0
0 0 0 0
25.785 -0.89499998 1.115 6
0 0 0 0
26.007 -0.88999999 0.82599998 12
27.638 -0.93900001 1.642 11
27.691999 -0.93400002 1.485 13
28.108 -0.94 1.345 10
28.160999 -0.93400002 1.183 2
27.493 -0.90499997 0.99599999 6
27.502001 -0.898 0.838 8
0 0 0 0
28.882999 -0.93000001 1.512 10
28.927999 -0.92299998 1.348 7
29.601999 -0.93699998 1.205 14
29.632999 -0.93000001 1.036 15
29.612 -0.92199999 0.86400002 16
12.899 -1.068 1.017 5
13.037 -1.076 0.95499998 5
13.098 -1.077 0.88599998 6
13.142 -1.076 0.81400001 5
13.067 -1.066 0.736 5
12.967 -1.054 0.65799999 8
13.166 -1.0700001 1.038 6
13.162 -1.066 0.963 5
13.174 -1.062 0.88999999 6
13.17 -1.058 0.815 5
13.173 -1.054 0.741 5
13.059 -1.041 0.662 7
22.173 -1.768 1.7460001 1
13.169 -1.046 0.963 5
13.169 -1.041 0.889 6
13.174 -1.038 0.81400001 5
13.176 -1.034 0.74000001 5
13.171 -1.029 0.66600001 6
13.73 -1.073 1.079 7
13.182 -1.026 0.96200001 5
13.189 -1.022 0.88800001 5
13.193 -1.018 0.81300002 6
13.209 -1.015 0.74000001 5
13.569 -1.039 0.68400002 7
14.06 -1.076 1.103 7
13.553 -1.033 0.986 6
13.559 -1.029 0.91100001 7
13.564 -1.025 0.833 6
13.626 -1.026 0.75999999 7
14.081 -1.056 0.70700002 8
14.057 -1.054 1.1 7
13.782 -1.029 1 7
14.011 -1.041 0.93800002 8
14.012 -1.0369999 0.85699999 8
14.077 -1.0369999 0.78200001 10
14.082 -1.033 0.70300001 8
14.093 -1.033 1.099 9
14.075 -1.027 1.018 8
14.095 -1.024 0.94 9
14.062 -1.017 0.85699999 8
14.062 -1.013 0.778 7
14.063 -1.0089999 0.69800001 6
14.563 -1.044 1.131 14
14.229 -1.016 1.025 8
14.293 -1.016 0.94800001 8
14.599 -1.033 0.88499999 8
14.655 -1.0319999 0.80599999 7
14.657 -1.028 0.72299999 7
14.717 -1.031 1.138 8
14.496 -1.011 1.039 6
14.626 -1.015 0.96499997 10
14.896 -1.029 0.898 7
14.975 -1.03 0.81800002 8
14.882 -1.0190001 0.72899997 5
14.587 -0.99800003 1.123 6
14.603 -0.995 1.041 7
14.603 -0.99000001 0.958 9
14.64 -0.98799998 0.87599999 6
14.71 -0.98799998 0.79699999 5
14.613 -0.977 0.70999998 7
14.59 -0.97399998 1.117 7
14.61 -0.97100002 1.035 8
14.618 -0.96700001 0.95300001 8
14.603 -0.96100003 0.86799997 7
14.614 -0.95700002 0.78600001 5
14.628 -0.954 0.704 9
14.616 -0.95200002 1.112 8
14.634 -0.94800001 1.03 10
14.615 -0.94300002 0.94599998 7
14.604 -0.93699998 0.861 7
14.608 -0.93300003 0.778 6
14.637 -0.93000001 0.69700003 11
14.694 -0.93199998 1.11 8
14.656 -0.92500001 1.024 9
14.641 -0.92000002 0.94 7
14.62 -0.91399997 0.85399997 7
14.627 -0.91000003 0.77100003 6
14.657 -0.90700001 0.69 9
16.754 -1.035 1.257 9
14.778 -0.90799999 1.024 5
14.733 -0.90100002 0.93699998 7
14.709 -0.89499998 0.85100001 7
14.706 -0.88999999 0.76700002 5
16.792 -1.011 0.78100002 9
16.799999 -1.01 1.25 10
0 0 0 0
16.792999 -0.99900001 1.058 11
16.805 -0.995 0.96200001 10
16.822001 -0.99000001 0.86699998 14
16.816999 -0.98500001 0.77200001 10
16.882999 -0.98699999 1.2460001 11
17.163 -0.99800003 1.168 12
17.157 -0.99199998 1.0700001 15
17.211 -0.99000001 0.97399998 14
17.513 -1.002 0.89099997 21
17.584999 -1.001 0.79500002 15
8.5810003 -0.898 0.63700002 5
8.5760002 -0.89499998 0.58899999 4
8.6160002 -0.89700001 0.54500002 3
8.5970001 -0.89300001 0.495 3
8.618 -0.89300001 0.449 3
8.6090002 -0.88999999 0.40200001 3
8.6120005 -0.89099997 0.64399999 5
8.592 -0.88700002 0.59500003 4
8.6099997 -0.88599998 0.54900002 3
8.5979996 -0.88300002 0.5 3
8.6040001 -0.88099998 0.45300001 3
8.6099997 -0.88 0.40599999 4
8.6450005 -0.884 0.65100002 5
8.6070004 -0.87800002 0.60100001 4
8.6420002 -0.87900001 0.55599999 4
8.6239996 -0.875 0.50599998 4
8.6059999 -0.87099999 0.458 3
8.6040001 -0.86799997 0.41 3
8.6829996 -0.87699997 0.65799999 4
8.6289997 -0.87 0.60600001 4
8.6730003 -0.87199998 0.56199998 4
8.6879997 -0.87099999 0.514 4
8.6479998 -0.86400002 0.46399999 3
8.632 -0.86000001 0.41600001 3
20.802999 -2.0769999 1.587 5
8.6389999 -0.86000001 0.611 4
8.7110004 -0.86400002 0.56800002 4
8.7200003 -0.86299998 0.51999998 3
8.6859999 -0.85699999 0.47 3
8.6359997 -0.85000002 0.419 4
21.006001 -2.0699999 1.612 8
21.02 -2.0650001 1.4960001 3
8.7250004 -0.85399997 0.57300001 3
21.028 -2.0539999 1.262 6
13.691 -1.334 0.74599999 3
8.7049999 -0.84500003 0.426 4
21.141001 -2.056 1.63 11
21.204 -2.0550001 1.518 7
21.254999 -2.0539999 1.404 5
21.194 -2.0420001 1.28 8
21.254 -2.0420001 1.166 4
14.506 -1.39 0.71600002 4
21.195999 -2.033 1.642 6
21.313 -2.0380001 1.533 5
21.368999 -2.0369999 1.418 2
21.319 -2.0250001 1.295 5
21.348 -2.0220001 1.178 4
14.575 -1.376 0.72399998 2
11.619 -1.098 0.903 4
11.615 -1.094 0.838 4
11.612 -1.091 0.77399999 4
11.605 -1.087 0.708 5
11.597 -1.0829999 0.64300001 4
11.603 -1.08 0.579 3
11.607 -1.081 0.90600002 5
11.615 -1.0779999 0.84200001 4
11.613 -1.075 0.77700001 5
11.604 -1.0700001 0.71100003 5
11.598 -1.066 0.64600003 4
11.594 -1.063 0.58099997 4
11.615 -1.0650001 0.90899998 5
11.608 -1.061 0.84399998 4
11.62 -1.059 0.77999997 5
11.6 -1.053 0.713 5
11.598 -1.05 0.648 4
11.61 -1.048 0.58499998 4
11.616 -1.049 0.912 4
11.616 -1.045 0.847 4
11.61 -1.041 0.78200001 5
11.603 -1.0369999 0.71499997 4
11.607 -1.034 0.65100002 6
11.609 -1.03 0.58700001 4
11.621 -1.0319999 0.91399997 5
11.621 -1.029 0.84899998 5
11.617 -1.025 0.78399998 5
11.622 -1.022 0.71799999 5
11.626 -1.0190001 0.65399998 4
11.626 -1.015 0.58899999 4
11.687 -1.021 0.92000002 5
11.652 -1.0140001 0.852 5
11.653 -1.011 0.787 4
11.638 -1.006 0.72000003 5
11.655 -1.0039999 0.65600002 5
11.666 -1.001 0.59200001 5
11.862 -1.0190001 0.935 5
11.822 -1.011 0.866 4
11.774 -1.0039999 0.796 5
11.72 -0.995 0.72600001 5
11.758 -0.995 0.66299999 6
11.781 -0.99400002 0.59799999 5
12.437 -1.049 0.98100001 5
12.428 -1.044 0.91000003 5
12.416 -1.04 0.83999997 6
12.374 -1.0319999 0.76700002 6
12.343 -1.026 0.69599998 6
12.29 -1.018 0.62400001 6
10.236 -1.212 0.62699997 5
10.419 -1.232 0.58200002 5
17.433001 -2.059 0.88 13
17.410999 -2.0539999 0.78299999 14
17.399 -2.05 0.68800002 13
14.088 -1.658 0.48100001 9
10.242 -1.207 0.63800001 5
10.401 -1.224 0.59100002 6
17.440001 -2.05 0.89700001 12
17.43 -2.046 0.801 13
17.493 -2.0510001 0.70899999 13
17.708 -2.073 0.62199998 2
9.5760002 -1.122 0.60500002 4
10.345 -1.211 0.59799999 5
17.568001 -2.0539999 0.921 6
17.513 -2.0450001 0.82099998 14
17.583 -2.05 0.73000002 15
17.620001 -2.052 0.63599998 7
9.4580002 -1.102 0.60699999 5
10.24 -1.192 0.602 4
10.429 -1.212 0.55599999 4
17.598 -2.043 0.84200001 13
17.604 -2.04 0.74699998 10
17.573 -2.0339999 0.65100002 9
9.4309998 -1.0930001 0.61400002 5
10.221 -1.182 0.61000001 4
10.423 -1.204 0.56599998 4
17.690001 -2.0409999 0.86199999 8
17.679001 -2.036 0.76599997 7
17.684 -2.0339999 0.671 6
0 0 0 0
10.22 -1.175 0.61900002 4
10.417 -1.196 0.57499999 4
17.833 -2.0439999 0.88499999 5
17.775999 -2.0339999 0.78600001 5
17.818001 -2.036 0.69199997 5
0 0 0 0
9.5360003 -1.089 0.58600003 3
10.41 -1.187 0.583 5
17.825001 -2.029 0.90100002 0
17.841999 -2.027 0.80500001 1
17.848 -2.0250001 0.708 0
8.5959997 -0.97600001 0.58200002 3
0 0 0 0
10.407 -1.178 0.59200001 5
10.416 -1.177 0.53500003 3
10.428 -1.176 0.479 3
10.433 -1.175 0.42199999 5
8.6000004 -0.96899998 0.58999997 4
8.6680002 -0.97500002 0.54699999 3
0 0 0 0
10.428 -1.169 0.54400003 3
10.43 -1.1670001 0.48699999 4
10.432 -1.165 0.43099999 5
8.5550003 -0.95700002 0.59399998 4
8.6009998 -0.95999998 0.55000001 3
0 0 0 0
10.376 -1.154 0.54900002 2
0 0 0 0
10.436 -1.156 0.43900001 4
8.5310001 -0.94599998 0.59899998 4
8.592 -0.95099998 0.55599999 4
0 0 0 0
10.38 -1.1440001 0.55699998 2
10.402 -1.145 0.50199997 2
10.403 -1.143 0.44499999 2
8.5080004 -0.93599999 0.60299999 5
8.5860004 -0.94199997 0.56199998 4
8.6059999 -0.94199997 0.51599997 3
8.5900002 -0.93900001 0.46700001 3
10.405 -1.135 0.50999999 2
10.411 -1.133 0.45300001 2
8.5080004 -0.92699999 0.61000001 5
8.5690002 -0.93199998 0.56699997 4
8.5970001 -0.93300003 0.52200001 2
8.592 -0.93000001 0.47400001 3
8.5939999 -0.92799997 0.42699999 2
8.5970001 -0.92699999 0.38 2
8.5190001 -0.91900003 0.616 5
8.5690002 -0.92299998 0.57300001 4
8.5979996 -0.92400002 0.528 3
8.5889997 -0.921 0.479 3
8.5900002 -0.91900003 0.43200001 2
8.6079998 -0.91900003 0.38600001 2
8.5340004 -0.912 0.62300003 5
8.5799999 -0.91500002 0.579 4
8.592 -0.91399997 0.53299999 3
8.5939999 -0.912 0.48500001 2
8.5889997 -0.90899998 0.43799999 2
8.6020002 -0.90899998 0.391 3
8.5570002 -0.90499997 0.63 5
8.5699997 -0.90399998 0.58399999 4
8.5959997 -0.90499997 0.53799999 3
8.5909996 -0.90200001 0.49000001 2
8.6070004 -0.90200001 0.44400001 3
8.6049995 -0.89899999 0.39700001 3
16.903 -2.052 0.73299998 16
16.834 -2.0439999 0.63999999 10
13.275 -1.612 0.433 7
12.204 -1.482 0.33199999 6
12.324 -1.4960001 0.26899999 5
14.044 -1.706 0.23199999 9
16.879 -2.052 0.75199997 15
16.809 -2.043 0.65899998 11
16.964001 -2.062 0.574 4
12.232 -1.487 0.347 6
12.231 -1.487 0.28200001 5
13.049 -1.586 0.23100001 7
16.863001 -2.0510001 0.77100003 16
16.879 -2.053 0.68199998 15
17.004 -2.0680001 0.59600002 11
12.305 -1.4960001 0.36399999 6
12.181 -1.4809999 0.29499999 6
12.64 -1.5369999 0.23899999 6
16.862 -2.052 0.79100001 17
16.855 -2.0510001 0.69999999 13
17.052999 -2.075 0.61699998 15
12.424 -1.511 0.382 6
12.158 -1.479 0.30899999 5
12.535 -1.525 0.25099999 6
16.865 -2.053 0.81099999 16
16.82 -2.0469999 0.71899998 12
16.872999 -2.053 0.63 12
12.677 -1.5420001 0.40400001 6
12.164 -1.479 0.32300001 5
12.348 -1.501 0.26199999 6
16.863001 -2.052 0.82999998 17
16.861 -2.0510001 0.74000001 14
16.767 -2.039 0.64600003 10
13.422 -1.632 0.44400001 6
12.201 -1.483 0.338 5
12.341 -1.5 0.27599999 6
16.865999 -2.0510001 0.85000002 17
16.867001 -2.0510001 0.759 14
16.834 -2.046 0.66799998 12
16.986 -2.063 0.58099997 7
12.28 -1.4910001 0.354 5
12.279 -1.49 0.28799999 6
16.870001 -2.05 0.86900002 17
16.9 -2.052 0.77999997 17
16.913 -2.053 0.69 13
17.082001 -2.072 0.60399997 12
12.397 -1.503 0.37099999 5
12.285 -1.489 0.30199999 6
16.896999 -2.05 0.88999999 16
16.916 -2.0510001 0.80000001 17
16.879 -2.046 0.708 11
17.108 -2.072 0.62400001 16
12.587 -1.524 0.391 6
12.304 -1.489 0.31600001 6
16.912001 -2.049 0.91000003 13
16.934 -2.05 0.81999999 17
16.908001 -2.0450001 0.72799999 13
16.896999 -2.043 0.63499999 10
13.307 -1.608 0.428 7
12.291 -1.484 0.33000001 5
16.936001 -2.0469999 0.93000001 9
16.971001 -2.05 0.83999997 15
16.959999 -2.0469999 0.74900001 13
16.909 -2.039 0.65399998 11
14.088 -1.698 0.46900001 9
12.383 -1.4910001 0.34599999 5
11.05 -1.332 0.61900002 5
17.062 -2.0550001 0.86299998 14
17.042999 -2.0510001 0.77100003 14
17.004 -2.0450001 0.676 13
17.209999 -2.0680001 0.59200001 4
12.497 -1.501 0.36199999 6
10.417 -1.252 0.59399998 5
17.184 -2.0639999 0.88800001 14
17.115999 -2.0539999 0.79299998 15
17.094 -2.049 0.69800001 12
17.334999 -2.0769999 0.61500001 11
12.678 -1.517 0.38100001 6
10.32 -1.237 0.60000002 5
17.172001 -2.056 0.90600002 10
17.212 -2.0580001 0.815 15
17.304001 -2.0669999 0.72500002 12
17.287001 -2.0639999 0.63099998 12
12.991 -1.549 0.40400001 7
10.241 -1.223 0.60600001 5
17.212999 -2.053 0.926 6
17.363001 -2.069 0.84100002 16
17.285 -2.0569999 0.74199998 13
17.146 -2.039 0.64399999 9
13.569 -1.612 0.43599999 7
10.229 -1.216 0.616 5
17.132999 -2.0350001 0.94 0
17.347 -2.0580001 0.85799998 14
17.319 -2.053 0.76099998 14
17.254999 -2.043 0.66500002 12
14.076 -1.665 0.46700001 8
10.414 -1.173 0.257 3
10.422 -1.176 0.20100001 5
10.36 -1.17 0.145 3
10.385 -1.175 0.088 6
10.396 -1.178 0.033 5
10.404 -1.181 -0.022 4
13.25 -1.5039999 0.34099999 2
13.459 -1.53 0.27500001 2
14.095 -1.605 0.212 0
10.384 -1.184 0.1 5
10.389 -1.186 0.044 4
10.395 -1.188 -0.0099999998 5
13.187 -1.508 0.354 4
13.266 -1.5190001 0.28600001 4
14.027 -1.608 0.227 4
10.383 -1.192 0.112 5
10.388 -1.194 0.056000002 5
10.395 -1.197 0.001 6
13.122 -1.511 0.368 4
13.133 -1.5140001 0.29800001 4
13.844 -1.598 0.23999999 5
10.378 -1.199 0.123 5
10.386 -1.202 0.068000004 4
10.395 -1.204 0.012 6
13.189 -1.529 0.38499999 7
13.029 -1.512 0.31 6
13.506 -1.569 0.249 6
10.365 -1.205 0.13500001 4
10.395 -1.21 0.079999998 4
10.395 -1.212 0.024 5
13.21 -1.54 0.40000001 7
12.896 -1.505 0.322 6
13.218 -1.545 0.259 6
10.344 -1.21 0.147 3
10.385 -1.216 0.092 4
10.394 -1.2180001 0.035999998 5
13.448 -1.577 0.42300001 8
12.793 -1.502 0.33399999 6
12.996 -1.527 0.27000001 6
14.041 -1.651 0.215 6
10.39 -1.223 0.104 5
10.393 -1.225 0.048 4
13.7 -1.615 0.447 8
12.74 -1.503 0.34799999 6
12.811 -1.513 0.28099999 6
13.824 -1.6339999 0.228 8
10.398 -1.23 0.116 5
10.404 -1.232 0.061000001 5
14.043 -1.664 0.47499999 8
12.708 -1.507 0.36199999 6
12.67 -1.503 0.29300001 6
13.379 -1.589 0.237 7
10.393 -1.235 0.12800001 5
10.39 -1.2359999 0.072999999 5
17.410999 -2.072 0.61000001 0
12.704 -1.513 0.377 6
12.542 -1.494 0.30500001 6
12.99 -1.549 0.245 6
10.352 -1.235 0.14 3
10.4 -1.242 0.085000001 5
17.413 -2.0810001 0.63099998 13
12.789 -1.529 0.39500001 6
12.451 -1.489 0.31799999 6
12.753 -1.526 0.25600001 6
14.043 -1.682 0.207 4
