# .PCD v0.7 - Point Cloud Data file format
VERSION 0.7
FIELDS x y z intensity
SIZE 4 4 4 4
TYPE F F F F
COUNT 1 1 1 1
WIDTH 1712
HEIGHT 1
VIEWPOINT 0 0 0 1 0 0 0
POINTS 1712
DATA ascii
20.698999 0.91500002 1.265 11
20.681999 0.91900003 1.152 15
20.634001 0.92199999 1.038 16
20.607 0.92699999 0.92299998 16
20.615999 0.93300003 0.81199998 15
20.660999 0.94 0.70300001 15
20.642 0.94700003 1.281 22
20.622999 0.95200002 1.168 14
20.636999 0.958 1.058 23
20.631001 0.963 0.94300002 22
20.641001 0.96899998 0.83200002 24
20.638 0.97399998 0.72100002 22
19.896999 0.94700003 1.253 19
19.827 0.94800001 1.141 15
0 0 0 0
19.868 0.96100003 0.926 18
19.857 0.96600002 0.81800002 19
0 0 0 0
20.618999 1.017 1.317 6
20.726999 1.027 1.211 9
30.065001 1.498 1.594 5
0 0 0 0
18.565001 0.935 0.78100002 7
18.517 0.93699998 0.67799997 9
17.642 0.89999998 1.142 16
17.639 0.90399998 1.045 17
17.620001 0.90799999 0.94800001 10
17.621 0.91299999 0.85100001 14
17.636 0.91799998 0.75599998 12
17.65 0.92299998 0.66000003 15
17.639999 0.93000001 1.155 19
17.631001 0.93400002 1.058 18
17.169001 0.91399997 0.93699998 9
17.635 0.94300002 0.86500001 16
17.629 0.94800001 0.76899999 14
17.641001 0.95300001 0.67299998 17
17.018 0.92699999 1.127 11
17.007999 0.93000001 1.034 9
16.396999 0.90100002 0.90700001 10
16.959999 0.93599999 0.84399998 13
17.002001 0.94300002 0.75400001 14
16.926001 0.94300002 0.65799999 22
16.447001 0.92400002 1.101 9
16.315001 0.92000002 1.003 8
16.181 0.917 0.90600002 9
16.382999 0.93300003 0.82700002 12
16.444 0.94 0.74000001 10
16.438 0.94400001 0.64999998 11
16.216999 0.93900001 1.097 13
16.191 0.94099998 1.006 9
16.106001 0.94 0.91299999 9
15.585 0.91399997 0.796 9
15.368 0.90499997 0.70099998 9
14.798 0.875 0.59500003 9
54.577 0.51999998 1.601 9
57.466 0.55900002 1.3839999 27
57.452999 0.57099998 1.084 27
57.438999 0.583 0.778 28
57.501999 0.59500003 0.47799999 26
142.23801 1.503 0.43900001 13
50.113998 0.54000002 1.5549999 36
57.471001 0.63099998 1.482 15
57.453999 0.64399999 1.182 27
57.441002 0.65600002 0.87599999 28
57.473 0.66799998 0.57499999 38
117.676 1.395 0.56199998 21
50.028999 0.60299999 1.637 35
54.522999 0.66900003 1.498 26
57.455002 0.71799999 1.278 27
57.431999 0.73000002 0.97100002 26
57.442001 0.74299997 0.67000002 28
101.151 1.33 0.64999998 15
49.804001 0.66600001 1.7130001 33
54.525002 0.74199998 1.59 12
57.466999 0.79400003 1.373 27
57.453999 0.80699998 1.066 27
57.437 0.81999999 0.76499999 31
57.491001 0.833 0.46399999 21
47.824001 0.70300001 1.723 20
50.130001 0.74900001 1.543 33
57.464001 0.87099999 1.466 7
57.445999 0.884 1.159 33
57.446999 0.898 0.85799998 32
57.466999 0.91100001 0.55599999 33
45.819 0.73699999 1.725 19
50.042 0.81599998 1.6210001 33
54.325001 0.89899999 1.473 25
57.456001 0.96399999 1.25 28
57.448002 0.977 0.94800001 30
57.457001 0.99000001 0.64600003 34
43.981998 0.76899999 1.725 18
49.501999 0.87599999 1.681 27
50.445 0.90499997 1.447 21
57.462002 1.044 1.34 26
57.451 1.057 1.0369999 30
57.456001 1.071 0.73500001 35
42.220001 0.79699999 1.721 16
0 0 0 0
50.181999 0.97100002 1.516 30
54.449001 1.067 1.353 17
57.469002 1.1390001 1.124 7
57.445 1.153 0.82099998 8
0 0 0 0
45.624001 0.93800002 1.689 18
50.037998 1.041 1.587 27
49.944 1.051 1.316 20
50.203999 1.069 1.058 4
52.448002 1.1289999 0.82800001 4
38.714001 0.84299999 1.6950001 13
43.917 0.96700001 1.6900001 16
46.152 1.027 1.5319999 22
46.158001 1.039 1.284 29
46.166 1.05 1.04 32
46.174 1.062 0.796 22
37.452999 0.87099999 1.694 19
41.730999 0.98100001 1.6670001 21
41.984001 0.99800003 1.455 15
41.866001 1.005 1.225 26
41.591999 1.0089999 0.99699998 24
41.705002 1.022 0.77899998 32
36.779999 0.912 1.717 31
38.848 0.972 1.607 12
38.832001 0.98199999 1.401 13
38.523998 0.98299998 1.182 18
38.582001 0.995 0.97899997 21
38.534 1.003 0.773 24
36.361 0.95700002 1.748 20
37.070999 0.98500001 1.586 19
37.169998 0.99699998 1.393 11
36.644001 0.99199998 1.174 12
35.785 0.97799999 0.95700002 10
35.708 0.98400003 0.76599997 10
33.591999 0.93599999 1.661 25
33.986 0.95599997 1.5 22
33.981998 0.96399999 1.319 13
33.972 0.972 1.135 22
33.389999 0.96399999 0.93699998 9
33.388 0.97299999 0.75999999 9
0 0 0 0
32.762001 0.97299999 1.489 19
32.686001 0.97899997 1.312 21
32.639 0.986 1.133 24
32.645 0.995 0.95899999 27
32.623001 1.002 0.78500003 31
31.066999 0.96399999 1.619 27
31.864 0.99699998 1.49 15
32.619999 1.029 1.351 33
32.553001 1.035 1.171 32
32.618 1.045 1 28
32.623001 1.054 0.82599998 32
57.488998 -0.368 -0.056000002 42
57.480999 -0.361 -0.352 42
57.479 -0.35499999 -0.64899999 34
57.462002 -0.34799999 -0.95099998 28
48.451 -0.28799999 -1.052 19
41.356998 -0.23999999 -1.112 15
57.492001 -0.32600001 0.057999998 36
57.486 -0.31900001 -0.23800001 34
57.471001 -0.31200001 -0.53500003 27
57.462002 -0.30399999 -0.83600003 38
66.155998 -0.34200001 -1.3049999 8
0 0 0 0
57.512001 -0.28200001 0.17200001 34
57.500999 -0.27399999 -0.124 33
57.498001 -0.26699999 -0.421 32
57.401001 -0.259 -0.722 26
57.470001 -0.25099999 -1.02 33
46.467999 -0.197 -1.0650001 17
57.522999 -0.235 0.28600001 24
57.522999 -0.227 -0.0099999998 26
57.499001 -0.22 -0.308 24
57.469002 -0.211 -0.61000001 25
57.466 -0.20299999 -0.90600002 28
49.134998 -0.167 -1.029 10
57.549 -0.18700001 0.39899999 7
120.74 -0.375 0.215 16
120.737 -0.35699999 -0.40700001 16
57.527 -0.161 -0.49700001 18
57.448002 -0.153 -0.79400003 25
57.484001 -0.145 -1.092 27
57.518002 -0.13600001 0.51300001 24
142.198 -0.315 0.53399998 10
147.29401 -0.30399999 -0.20900001 5
142.235 -0.271 -0.94999999 14
57.463001 -0.1 -0.68099999 26
57.460999 -0.092 -0.97799999 36
57.466999 -0.082999997 0.625 32
162.752 -0.20999999 0.92799997 6
165.24699 -0.186 0.088 4
156.261 -0.153 -0.74299997 12
57.5 -0.046999998 -0.57099998 23
57.435001 -0.037 -0.86699998 23
57.455002 -0.028000001 0.73500001 30
57.507999 -0.018999999 0.43700001 16
189.19099 -0.034000002 0.45899999 8
173.77901 -0.003 -0.495 14
57.567001 0.0080000004 -0.46200001 5
57.444 0.017000001 -0.759 35
57.459999 0.027000001 0.84399998 23
57.487999 0.037 0.54699999 31
0 0 0 0
257.91299 0.255 -0.241 8
171.177 0.197 -1.05 23
57.487 0.075999998 -0.64999998 38
57.450001 0.086000003 0.954 31
57.460999 0.096000001 0.65600002 27
188.319 0.34900001 1.175 35
290.608 0.59100002 0.278 8
173.759 0.384 -0.73500001 17
57.519001 0.13699999 -0.542 20
57.466 0.147 1.062 25
57.470001 0.15700001 0.764 45
57.493999 0.167 0.46599999 19
290.59698 0.89899999 0.81599998 24
291.40701 0.954 -0.69499999 10
162.507 0.56199998 -1.2309999 5
57.457001 0.20900001 1.169 25
57.441002 0.219 0.87 27
57.490002 0.23 0.57099998 27
188.437 0.78899997 0.875 9
291.29599 1.274 -0.161 8
172.27499 0.78600001 -0.991 15
57.474998 0.273 1.274 27
57.438999 0.28299999 0.97500002 27
57.455002 0.29499999 0.67699999 29
188.353 1.0039999 1.222 33
290.42999 1.603 0.37 10
291.39099 1.664 -1.1440001 152
57.467999 0.338 1.378 20
57.457001 0.34999999 1.079 27
57.450001 0.361 0.77999997 27
57.490002 0.37200001 0.47499999 23
290.59799 1.942 0.89099997 16
291.371 2.007 -0.62099999 18
54.540001 0.38600001 1.4069999 16
57.452999 0.41800001 1.183 27
57.433998 0.42899999 0.88200003 35
57.462002 0.44 0.57700002 28
188.57401 1.4859999 0.91299999 17
218.67 1.768 -0.081 7
54.558998 0.45199999 1.5039999 28
57.453999 0.48699999 1.284 24
57.445 0.49900001 0.98400003 28
57.445 0.51099998 0.67799997 36
57.535 0.52399999 0.37900001 4
171.26801 1.597 0.237 26
33.608002 -0.44 -1.1289999 10
30.101999 -0.39500001 -1.166 8
27.058001 -0.35499999 -1.188 14
24.097 -0.31600001 -1.1849999 11
21.570999 -0.28299999 -1.173 9
19.284 -0.25299999 -1.148 9
36.776001 -0.477 -1.16 32
30.743 -0.39899999 -1.128 8
27.546 -0.35699999 -1.153 7
24.704 -0.31999999 -1.164 11
22.094 -0.28600001 -1.156 7
0 0 0 0
37.530998 -0.48100001 -1.108 13
33.276001 -0.426 -1.154 9
28.110001 -0.359 -1.119 8
25.065001 -0.31999999 -1.13 6
24.080999 -0.30700001 -1.21 12
21.275999 -0.27000001 -1.179 8
41.331001 -0.51999998 -1.135 6
36.747002 -0.46200001 -1.199 22
30.441999 -0.382 -1.15 11
27.157 -0.34 -1.169 17
24.371 -0.30500001 -1.175 11
21.830999 -0.27200001 -1.165 9
42.264 -0.52200001 -1.074 17
36.874001 -0.454 -1.127 25
33.066002 -0.40599999 -1.181 2
27.978001 -0.34299999 -1.147 8
25.038 -0.30599999 -1.155 11
24.069 -0.29300001 -1.235 9
46.153 -0.55699998 -1.079 3
38.313999 -0.461 -1.0930001 13
33.568001 -0.40200001 -1.131 9
30.118 -0.36000001 -1.173 8
27.058001 -0.322 -1.194 12
24.1 -0.28600001 -1.188 11
48.369999 -0.56800002 -1.0319999 20
41.561001 -0.486 -1.102 17
36.778999 -0.428 -1.164 29
30.916 -0.359 -1.141 8
27.555 -0.31799999 -1.159 9
24.677999 -0.28400001 -1.165 10
57.549 -0.65499997 -1.1109999 24
0 0 0 0
37.528999 -0.42300001 -1.1109999 13
33.227001 -0.373 -1.158 18
28.104 -0.31299999 -1.124 7
25.058001 -0.278 -1.132 10
57.488998 -0.63099998 -0.99199998 34
47.243999 -0.51599997 -1.058 8
41.101002 -0.44600001 -1.133 4
36.754002 -0.39700001 -1.206 16
30.471001 -0.32699999 -1.1569999 7
27.166 -0.28999999 -1.1720001 19
57.491001 -0.60600001 -0.875 30
49.300999 -0.51599997 -1.0039999 4
42.134998 -0.43799999 -1.075 15
36.834999 -0.38100001 -1.1339999 24
33.037998 -0.33899999 -1.187 19
27.719 -0.28299999 -1.1390001 10
57.473999 -0.57800001 -0.75700003 36
57.501999 -0.57499999 -1.054 41
45.456001 -0.45100001 -1.068 18
38.334 -0.377 -1.101 16
33.514 -0.32699999 -1.136 20
30.094 -0.29100001 -1.176 15
57.505001 -0.54900002 -0.64099997 35
57.485001 -0.54500002 -0.93699998 42
47.402 -0.44499999 -1.016 19
41.595001 -0.38699999 -1.11 15
36.768002 -0.33899999 -1.171 28
30.716999 -0.28 -1.136 9
57.474998 -0.51700002 -0.52200001 42
57.476002 -0.51200002 -0.81800002 27
57.506001 -0.50700003 -1.115 25
44.799999 -0.391 -1.105 16
37.548 -0.324 -1.119 12
33.188 -0.28299999 -1.16 25
57.483002 -0.48300001 -0.40599999 46
57.476002 -0.47799999 -0.70200002 31
57.487999 -0.472 -0.99800003 40
46.261002 -0.37599999 -1.0470001 10
41.011002 -0.329 -1.14 11
36.752998 -0.29100001 -1.211 19
57.5 -0.44800001 -0.28999999 41
57.466 -0.44100001 -0.58499998 36
57.459999 -0.435 -0.88200003 27
49.130001 -0.36700001 -1.012 7
42.162998 -0.31 -1.086 14
36.831001 -0.26699999 -1.138 25
57.490002 -0.40900001 -0.17200001 44
57.484001 -0.403 -0.46900001 39
57.48 -0.396 -0.76499999 27
57.488998 -0.38999999 -1.068 39
45.578999 -0.30399999 -1.082 17
38.129002 -0.25 -1.102 17
18.266001 -0.186 -1.1720001 9
16.204 -0.167 -1.125 8
15.321 -0.15899999 -1.1440001 6
14.096 -0.148 -1.128 6
13.073 -0.139 -1.115 4
12.432 -0.133 -1.125 4
18.483999 -0.19599999 -1.153 9
16.236 -0.17399999 -1.098 8
15.909 -0.17200001 -1.159 7
14.635 -0.16 -1.145 7
13.464 -0.148 -1.124 5
12.783 -0.142 -1.1339999 5
19.174 -0.212 -1.1619999 11
0 0 0 0
16.187 -0.182 -1.15 8
15.248 -0.17299999 -1.165 6
14.057 -0.161 -1.148 5
13.059 -0.15000001 -1.135 4
19.297001 -0.221 -1.135 8
18.195 -0.20900001 -1.165 8
16.201 -0.18799999 -1.122 8
15.359 -0.17900001 -1.145 6
14.114 -0.16599999 -1.126 6
13.086 -0.155 -1.113 5
0 0 0 0
18.756001 -0.222 -1.166 8
16.247 -0.19400001 -1.095 8
16.048 -0.193 -1.1670001 7
14.749 -0.178 -1.15 6
13.592 -0.16599999 -1.131 5
21.24 -0.257 -1.17 8
19.268999 -0.234 -1.1619999 11
17.347 -0.212 -1.137 6
16.181999 -0.199 -1.147 8
15.259 -0.189 -1.161 7
14.069 -0.175 -1.1440001 5
21.742001 -0.26899999 -1.1569999 10
19.316999 -0.23999999 -1.1289999 5
18.284 -0.229 -1.163 8
16.204 -0.204 -1.117 8
15.579 -0.197 -1.155 7
14.226 -0.18099999 -1.13 7
24.047001 -0.303 -1.234 7
21.108999 -0.26699999 -1.193 8
18.860001 -0.23999999 -1.164 8
16.385 -0.20999999 -1.098 7
16.163 -0.208 -1.168 8
15.071 -0.19499999 -1.1670001 7
24.093 -0.30899999 -1.1900001 12
21.419001 -0.27500001 -1.169 9
19.277 -0.249 -1.153 10
0 0 0 0
16.204 -0.211 -1.1390001 8
15.261 -0.2 -1.153 7
24.535 -0.31799999 -1.165 8
21.957001 -0.28600001 -1.156 9
0 0 0 0
18.349001 -0.241 -1.159 7
16.236 -0.214 -1.11 8
15.799 -0.20900001 -1.1619999 7
25.041 -0.32800001 -1.14 10
0 0 0 0
21.148001 -0.27900001 -1.182 8
19.021 -0.252 -1.164 9
0 0 0 0
16.174999 -0.215 -1.158 8
27.066999 -0.35699999 -1.179 16
24.125 -0.31900001 -1.176 10
21.608999 -0.287 -1.165 9
19.292 -0.257 -1.142 8
18.273001 -0.244 -1.177 10
16.209 -0.21699999 -1.128 8
27.666 -0.36700001 -1.15 9
24.806 -0.33000001 -1.16 10
22.120001 -0.294 -1.149 7
0 0 0 0
18.681 -0.25 -1.166 9
16.309 -0.21799999 -1.102 8
28.118999 -0.373 -1.114 9
27.062 -0.36000001 -1.212 1
24.082001 -0.32100001 -1.2029999 12
21.299999 -0.28400001 -1.176 8
19.268999 -0.257 -1.164 10
17.556999 -0.235 -1.151 9
30.455 -0.40400001 -1.145 8
27.267 -0.36199999 -1.166 19
24.41 -0.324 -1.17 9
21.864 -0.29100001 -1.163 9
21.055 -0.28 -1.23 4
18.301001 -0.244 -1.164 8
33.057999 -0.43599999 -1.176 2
28.058001 -0.37099999 -1.1440001 7
25.025999 -0.331 -1.149 10
24.056999 -0.31799999 -1.232 9
21.127001 -0.27900001 -1.191 8
18.927 -0.25 -1.165 9
8.632 -0.86500001 0.51200002 4
8.618 -0.861 0.46399999 3
8.6140003 -0.85799998 0.41600001 3
8.6090002 -0.85500002 0.368 3
8.6260004 -0.85399997 0.32100001 3
8.6219997 -0.85100001 0.27399999 3
8.6999998 -0.85900003 0.51999998 4
8.6590004 -0.852 0.47 3
8.6289997 -0.847 0.421 4
8.625 -0.84399998 0.37200001 4
8.6120005 -0.83999997 0.324 3
8.651 -0.84100002 0.278 3
20.896 -2.0339999 1.258 2
8.6820002 -0.84200001 0.47400001 3
8.6560001 -0.83700001 0.42500001 4
8.6379995 -0.833 0.37599999 4
8.6470003 -0.83099997 0.32800001 3
8.6800003 -0.83099997 0.28200001 3
21.136 -2.026 1.279 9
13.694 -1.308 0.75300002 2
14.13 -1.346 0.699 1
8.6870003 -0.824 0.38100001 4
8.7279997 -0.82599998 0.33399999 5
8.7320004 -0.82300001 0.28600001 4
21.256001 -2.006 1.293 6
11.621 -1.0930001 0.64300001 2
14.595 -1.368 0.72600001 0
11.617 -1.085 0.51300001 2
11.609 -1.081 0.44800001 2
8.7629995 -0.81300002 0.28999999 3
21.434 -1.99 1.3099999 1
21.427 -1.982 1.191 1
14.645 -1.35 0.73299998 2
11.587 -1.064 0.514 4
11.596 -1.062 0.44999999 3
11.605 -1.059 0.38699999 3
11.629 -1.062 0.713 6
11.597 -1.0549999 0.64700001 4
11.599 -1.051 0.583 4
11.587 -1.046 0.51700002 4
11.6 -1.044 0.45300001 4
11.601 -1.041 0.389 4
11.611 -1.0420001 0.71399999 5
11.597 -1.0369999 0.64899999 5
11.608 -1.034 0.58499998 4
11.58 -1.028 0.51800001 4
11.6 -1.026 0.45500001 4
11.599 -1.022 0.391 5
11.607 -1.023 0.71600002 4
11.606 -1.0190001 0.65100002 5
11.608 -1.015 0.58700001 4
11.603 -1.011 0.52100003 4
11.61 -1.008 0.45699999 4
11.6 -1.0039999 0.39199999 4
11.627 -1.006 0.71899998 5
11.618 -1.001 0.653 5
11.631 -0.99900001 0.58899999 4
11.609 -0.99299997 0.523 4
11.613 -0.98900002 0.458 4
11.622 -0.986 0.39399999 4
11.692 -0.99299997 0.72399998 6
11.671 -0.98699999 0.65700001 5
11.682 -0.98400003 0.59299999 7
11.664 -0.97799999 0.52600002 5
11.652 -0.97399998 0.46000001 5
11.656 -0.97000003 0.396 6
11.77 -0.98000002 0.72899997 6
11.8 -0.97799999 0.66500002 6
12.04 -0.99400002 0.611 6
12.118 -0.99599999 0.54699999 6
11.747 -0.96200001 0.46399999 8
11.747 -0.958 0.39899999 8
0 0 0 0
0 0 0 0
12.491 -1.01 0.634 7
12.689 -1.022 0.57200003 5
0 0 0 0
12.445 -0.99400002 0.42199999 7
13.178 -1.053 0.81599998 5
13.176 -1.048 0.74199998 5
12.962 -1.027 0.65700001 7
13.089 -1.0319999 0.58899999 8
13.147 -1.0319999 0.51899999 9
13.182 -1.031 0.447 8
13.18 -1.03 0.815 6
13.177 -1.025 0.741 5
13.132 -1.017 0.66500002 6
13.149 -1.0140001 0.59100002 9
13.159 -1.011 0.51800001 7
13.172 -1.007 0.44499999 6
13.195 -1.0089999 0.81400001 6
13.192 -1.0039999 0.74000001 5
13.446 -1.0190001 0.67900002 6
13.252 -1 0.59399998 9
13.421 -1.008 0.52600002 6
13.398 -1.002 0.44999999 7
17.294001 -2.0480001 0.838 16
17.271999 -2.0420001 0.74400002 14
17.18 -2.0280001 0.64700001 10
13.482 -1.589 0.433 7
12.605 -1.483 0.33700001 6
12.783 -1.501 0.27200001 6
17.415001 -2.0469999 0.85900003 16
17.351 -2.036 0.76200002 14
17.263 -2.0220001 0.66500002 11
13.904 -1.626 0.45899999 8
12.771 -1.4910001 0.352 6
12.842 -1.497 0.28400001 6
17.457001 -2.0369999 0.87699997 14
17.451 -2.0320001 0.78200001 17
17.459999 -2.029 0.68699998 13
14.09 -1.635 0.477 8
12.971 -1.502 0.368 6
13.007 -1.5039999 0.29899999 6
17.540001 -2.03 0.89600003 14
17.544001 -2.026 0.80000001 13
17.598 -2.029 0.70700002 13
14.076 -1.619 0.48800001 11
13.217 -1.518 0.38600001 7
13.057 -1.497 0.31099999 6
17.629999 -2.023 0.91500002 7
17.679001 -2.0239999 0.82099998 10
17.681 -2.02 0.72500002 8
14.072 -1.605 0.49900001 4
13.429 -1.528 0.403 4
13.1 -1.488 0.322 3
17.723 -2.016 0.93300003 1
17.813999 -2.0209999 0.84100002 7
17.816 -2.017 0.74400002 5
17.681999 -1.998 0.64099997 0
13.86 -1.563 0.42699999 3
13.223 -1.488 0.33500001 2
10.428 -1.175 0.55699998 4
17.886 -2.0109999 0.85799998 1
10.429 -1.17 0.44299999 3
10.423 -1.166 0.38499999 3
10.421 -1.164 0.32800001 3
10.439 -1.163 0.27200001 4
10.423 -1.163 0.56400001 4
10.436 -1.1619999 0.50800002 4
10.433 -1.159 0.45100001 4
10.423 -1.155 0.39300001 4
10.42 -1.152 0.336 3
10.425 -1.15 0.27900001 4
10.381 -1.146 0.56900001 3
0 0 0 0
10.43 -1.146 0.458 3
10.417 -1.142 0.39899999 4
10.417 -1.14 0.34299999 4
10.42 -1.138 0.28600001 4
10.374 -1.133 0.57599998 3
10.379 -1.131 0.51899999 2
10.386 -1.1289999 0.463 2
10.372 -1.125 0.405 3
0 0 0 0
10.387 -1.1210001 0.292 3
8.5970001 -0.92900002 0.48300001 3
10.396 -1.1210001 0.52700001 2
10.402 -1.118 0.47 2
10.384 -1.114 0.412 2
10.396 -1.112 0.35499999 2
10.39 -1.109 0.29800001 2
8.6120005 -0.92000002 0.48899999 3
8.6040001 -0.917 0.44100001 3
8.592 -0.91299999 0.39399999 2
8.5889997 -0.91000003 0.34599999 3
8.599 -0.90899998 0.29899999 3
8.599 -0.90700001 0.252 1
8.599 -0.90799999 0.493 3
8.5959997 -0.90499997 0.44600001 2
8.6000004 -0.903 0.39899999 3
8.5979996 -0.89999998 0.35100001 3
8.6120005 -0.89899999 0.30399999 3
8.5979996 -0.89600003 0.257 1
8.6000004 -0.89700001 0.498 3
8.6000004 -0.89399999 0.45100001 3
8.5979996 -0.89099997 0.403 3
8.5889997 -0.88800001 0.35499999 2
8.6120005 -0.88800001 0.30899999 3
8.5889997 -0.88300002 0.26100001 2
8.6260004 -0.88800001 0.50400001 3
8.6059999 -0.88300002 0.45500001 3
8.6169996 -0.88200003 0.40900001 3
8.5979996 -0.87699997 0.36000001 3
8.6070004 -0.87599999 0.31299999 3
8.5880003 -0.87199998 0.26499999 2
8.6280003 -0.87599999 0.50800002 3
8.6000004 -0.87099999 0.45899999 3
8.6070004 -0.86900002 0.412 4
8.5950003 -0.86500001 0.36399999 3
8.6040001 -0.86400002 0.317 3
8.5959997 -0.86000001 0.26899999 2
11.617 -1.4680001 0.37099999 5
11.402 -1.4400001 0.303 5
11.642 -1.47 0.24600001 5
14.195 -1.7920001 0.223 6
10.409 -1.314 0.108 6
10.4 -1.312 0.052000001 6
11.797 -1.489 0.389 5
11.423 -1.441 0.31600001 5
11.571 -1.459 0.25799999 5
0 0 0 0
10.398 -1.3099999 0.119 5
10.411 -1.311 0.064000003 6
16.358999 -2.062 0.55900002 6
11.481 -1.446 0.33000001 5
11.536 -1.452 0.27000001 5
14.187 -1.785 0.255 4
10.367 -1.304 0.13 4
10.401 -1.307 0.075000003 5
16.402 -2.063 0.57800001 11
11.551 -1.452 0.345 5
11.52 -1.447 0.28200001 5
12.015 -1.508 0.229 6
10.332 -1.296 0.141 2
10.392 -1.303 0.086000003 5
16.434 -2.062 0.59799999 15
11.665 -1.4630001 0.361 5
11.538 -1.446 0.296 5
11.884 -1.488 0.23899999 5
14.238 -1.7819999 0.211 5
10.394 -1.3 0.097999997 5
16.466 -2.0610001 0.61699998 15
11.844 -1.4809999 0.38 5
11.574 -1.446 0.30899999 5
11.805 -1.474 0.25 5
14.233 -1.776 0.226 8
10.4 -1.296 0.109 6
16.337 -2.0380001 0.63 11
12.08 -1.505 0.40000001 4
11.639 -1.449 0.32300001 5
11.774 -1.465 0.26300001 5
13.407 -1.6670001 0.227 6
10.394 -1.291 0.12 5
16.283001 -2.0239999 0.64499998 10
16.556 -2.056 0.56699997 8
11.729 -1.455 0.338 5
11.768 -1.459 0.27500001 6
12.474 -1.545 0.22400001 7
10.378 -1.284 0.131 4
16.478001 -2.04 0.67000002 15
16.605 -2.0539999 0.58600003 13
11.857 -1.465 0.354 5
11.798 -1.456 0.28799999 5
12.296 -1.516 0.234 6
10.335 -1.273 0.141 3
16.532 -2.0380001 0.69 15
16.677999 -2.0539999 0.60600001 13
12.025 -1.479 0.37200001 5
11.844 -1.455 0.301 5
12.204 -1.498 0.245 5
14.129 -1.733 0.207 3
16.556 -2.0320001 0.70700002 11
16.742001 -2.052 0.625 13
12.246 -1.499 0.391 5
11.926 -1.4579999 0.315 6
12.165 -1.4859999 0.25600001 5
14.051 -1.715 0.22 7
16.625999 -2.03 0.727 12
16.625 -2.0280001 0.63700002 10
13.04 -1.5880001 0.42899999 7
12.027 -1.4630001 0.33000001 6
12.162 -1.478 0.26800001 5
14.072 -1.7079999 0.234 8
16.708 -2.029 0.74699998 12
16.697001 -2.0250001 0.65600002 11
16.865999 -2.043 0.57200003 6
12.154 -1.47 0.345 6
12.2 -1.474 0.28099999 5
13.209 -1.594 0.233 7
16.837999 -2.0339999 0.76899999 16
16.862 -2.0339999 0.67900002 15
17.004 -2.0480001 0.59299999 10
12.326 -1.482 0.36199999 6
12.257 -1.472 0.294 5
12.815 -1.5369999 0.23800001 6
16.927 -2.0320001 0.78899997 17
16.955999 -2.0320001 0.699 14
17.193001 -2.0569999 0.616 13
12.549 -1.499 0.38 6
12.349 -1.473 0.30700001 5
12.751 -1.5190001 0.249 6
17.023001 -2.03 0.81 17
17.077 -2.033 0.72000003 13
17.238001 -2.049 0.63300002 13
12.845 -1.524 0.40099999 7
12.46 -1.476 0.322 5
12.74 -1.507 0.25999999 6
10.353 -1.27 0.142 4
10.4 -1.277 0.086999997 5
10.416 -1.28 0.030999999 5
10.394 -1.278 -0.024 5
10.367 -1.276 -0.079999998 5
10.178 -1.2539999 -0.133 3
14.169 -1.7460001 0.20999999 2
10.394 -1.2819999 0.097999997 6
10.391 -1.283 0.043000001 4
10.378 -1.2819999 -0.013 5
10.386 -1.284 -0.068999998 4
10.159 -1.257 -0.122 3
14.161 -1.753 0.226 7
10.397 -1.288 0.11 6
10.394 -1.288 0.054000001 6
10.394 -1.289 -0.0020000001 5
10.391 -1.29 -0.057 4
10.192 -1.266 -0.111 4
13.567 -1.686 0.23100001 8
10.396 -1.2920001 0.122 6
10.395 -1.293 0.066 5
10.399 -1.295 0.0089999996 5
10.386 -1.294 -0.046 3
10.116 -1.261 -0.097999997 3
14.098 -1.758 0.25600001 0
10.38 -1.295 0.133 4
10.389 -1.2970001 0.078000002 4
10.392 -1.298 0.021 5
10.386 -1.298 -0.034000002 4
10.217 -1.278 -0.088 3
12.097 -1.513 0.234 6
10.342 -1.294 0.14399999 3
10.387 -1.301 0.089000002 4
10.389 -1.302 0.033 6
10.399 -1.304 -0.022 5
10.371 -1.301 -0.078000002 4
11.861 -1.488 0.242 6
14.235 -1.7869999 0.215 4
10.408 -1.307 0.101 5
10.394 -1.3049999 0.045000002 6
10.388 -1.3049999 -0.0099999998 5
10.395 -1.307 -0.066 5
11.694 -1.471 0.25299999 5
14.22 -1.789 0.23100001 7
10.399 -1.308 0.113 6
10.396 -1.309 0.056000002 6
10.389 -1.308 0.001 5
10.393 -1.309 -0.054000001 5
11.569 -1.4579999 0.26300001 5
0 0 0 0
10.388 -1.3099999 0.125 5
10.392 -1.3099999 0.068000004 6
10.402 -1.312 0.013 5
10.393 -1.312 -0.041999999 4
11.483 -1.449 0.27399999 5
12.072 -1.524 0.22400001 4
10.365 -1.309 0.13699999 4
10.392 -1.312 0.079999998 5
10.396 -1.313 0.025 5
10.404 -1.3150001 -0.029999999 4
11.418 -1.443 0.28600001 5
11.839 -1.4960001 0.233 5
10.331 -1.306 0.148 2
10.382 -1.313 0.092 4
10.396 -1.3150001 0.035999998 6
10.4 -1.3150001 -0.017999999 5
11.388 -1.441 0.29800001 5
11.664 -1.476 0.243 5
14.196 -1.796 0.22 5
10.395 -1.3150001 0.104 6
10.401 -1.316 0.048 6
10.391 -1.3150001 -0.0060000001 5
11.369 -1.439 0.31099999 5
11.545 -1.461 0.25400001 5
14.177 -1.794 0.236 7
10.405 -1.317 0.116 6
10.395 -1.3150001 0.059999999 6
10.388 -1.3150001 0.0049999999 5
11.381 -1.441 0.324 5
11.468 -1.452 0.26499999 5
14.136 -1.789 0.25099999 5
10.394 -1.3150001 0.12800001 5
10.404 -1.316 0.071999997 5
10.392 -1.3150001 0.017000001 5
11.421 -1.446 0.338 5
11.41 -1.444 0.27700001 5
11.963 -1.5140001 0.226 5
10.347 -1.309 0.139 3
10.387 -1.314 0.083999999 4
10.406 -1.316 0.028000001 6
11.492 -1.454 0.35299999 5
11.397 -1.441 0.289 5
11.769 -1.488 0.236 5
14.204 -1.795 0.207 3
10.402 -1.314 0.096000001 5
10.405 -1.3150001 0.039999999 7
8.6029997 -0.926 -0.013 2
8.6059999 -0.92799997 -0.059999999 3
8.599 -0.93000001 -0.106 3
8.5970001 -0.93199998 -0.154 2
8.6090002 -0.935 -0.2 4
8.599 -0.93699998 -0.24699999 2
10.348 -1.127 -0.0080000004 3
0 0 0 0
0 0 0 0
10.368 -1.137 -0.177 2
0 0 0 0
10.391 -1.1440001 -0.289 3
0 0 0 0
0 0 0 0
0 0 0 0
0 0 0 0
10.375 -1.152 -0.22400001 2
15.988 -1.78 -0.43200001 0
10.406 -1.158 0.0089999996 6
10.384 -1.1569999 -0.046 4
10.381 -1.16 -0.102 4
10.41 -1.165 -0.16 3
15.472 -1.7359999 -0.32100001 3
15.632 -1.757 -0.40900001 4
10.405 -1.169 0.017999999 5
10.385 -1.169 -0.037 4
10.388 -1.1720001 -0.093000002 3
15.81 -1.7869999 -0.229 0
15.374 -1.7410001 -0.30500001 4
15.458 -1.755 -0.38999999 6
10.396 -1.179 0.027000001 6
10.387 -1.181 -0.028000001 4
10.385 -1.182 -0.083999999 4
10.332 -1.179 -0.14 3
15.349 -1.755 -0.29100001 7
15.293 -1.752 -0.37200001 8
10.399 -1.191 0.037 6
10.39 -1.192 -0.017999999 5
10.383 -1.193 -0.074000001 6
10.324 -1.188 -0.13 4
15.296 -1.7640001 -0.27599999 9
15.124 -1.748 -0.354 8
10.413 -1.2029999 0.046999998 5
10.396 -1.2029999 -0.0080000004 6
10.388 -1.204 -0.064000003 5
10.342 -1.201 -0.121 4
15.267 -1.776 -0.25999999 9
14.997 -1.747 -0.33700001 8
10.409 -1.212 0.057 5
10.399 -1.2130001 0.001 6
10.386 -1.214 -0.054000001 4
10.363 -1.2130001 -0.111 4
15.298 -1.794 -0.24600001 9
14.617 -1.717 -0.31400001 8
10.415 -1.222 0.067000002 5
10.388 -1.221 0.011 6
10.381 -1.222 -0.044 4
10.372 -1.223 -0.101 4
15.265 -1.803 -0.23 5
14.45 -1.71 -0.296 9
10.407 -1.2309999 0.077 5
10.389 -1.23 0.021 5
10.389 -1.232 -0.034000002 4
10.393 -1.234 -0.090000004 6
10.345 -1.2309999 -0.146 3
14.367 -1.712 -0.27900001 10
10.406 -1.239 0.088 5
10.392 -1.239 0.032000002 5
10.395 -1.2410001 -0.023 4
10.379 -1.2410001 -0.079999998 6
10.321 -1.2359999 -0.13500001 3
14.22 -1.706 -0.26199999 11
10.401 -1.247 0.097999997 6
10.39 -1.247 0.043000001 5
10.397 -1.25 -0.012 4
10.389 -1.25 -0.068999998 7
10.312 -1.243 -0.124 3
14.126 -1.705 -0.24600001 10
10.408 -1.256 0.109 6
10.39 -1.255 0.054000001 4
10.394 -1.257 -0.001 4
10.379 -1.257 -0.057999998 6
10.269 -1.245 -0.113 4
14.111 -1.7130001 -0.23 7
10.403 -1.263 0.12 6
10.392 -1.263 0.064999998 4
10.394 -1.2640001 0.0089999996 4
10.401 -1.267 -0.046999998 4
10.304 -1.256 -0.102 5
14.082 -1.719 -0.215 3
10.389 -1.268 0.132 6
10.392 -1.2690001 0.075999998 4
10.401 -1.272 0.02 5
10.386 -1.271 -0.035999998 4
10.335 -1.266 -0.090999998 6
10.222 -1.2539999 -0.145 3
11.616 -0.97000003 -0.122 5
11.619 -0.97399998 -0.186 4
11.614 -0.97799999 -0.249 11
11.614 -0.98199999 -0.31400001 6
11.619 -0.986 -0.37799999 9
11.618 -0.99000001 -0.442 11
11.612 -0.99000001 -0.118 4
11.608 -0.99299997 -0.182 4
11.629 -0.99900001 -0.24600001 8
11.622 -1.002 -0.31099999 6
11.634 -1.007 -0.375 8
11.633 -1.011 -0.43900001 8
11.615 -1.01 -0.114 5
11.611 -1.013 -0.178 4
11.613 -1.017 -0.241 5
11.611 -1.021 -0.30599999 5
11.635 -1.027 -0.37099999 6
21.804001 -1.932 -0.81400001 1
11.613 -1.029 -0.11 5
11.612 -1.033 -0.17299999 3
19.275 -1.72 -0.39300001 2
20.32 -1.8200001 -0.528 4
21.636 -1.9450001 -0.68099999 6
21.594999 -1.949 -0.79799998 9
17.261 -1.558 -0.156 3
18.957001 -1.717 -0.27500001 6
18.934999 -1.721 -0.37799999 10
20.278 -1.85 -0.51800001 16
21.393 -1.9579999 -0.66399997 14
21.346001 -1.961 -0.77899998 14
17.162001 -1.576 -0.147 9
18.612 -1.715 -0.26199999 15
18.632999 -1.723 -0.36399999 18
20.275999 -1.881 -0.509 14
21.150999 -1.97 -0.64600003 15
21.077 -1.97 -0.759 11
17.056 -1.594 -0.138 10
18.622999 -1.7460001 -0.25299999 17
18.334 -1.725 -0.34900001 13
0 0 0 0
20.916 -1.9809999 -0.62800002 14
20.767 -1.974 -0.73699999 12
16.965 -1.612 -0.12899999 6
18.507 -1.7640001 -0.241 7
18.163 -1.737 -0.336 6
18.618 -1.786 -0.44800001 6
20.67 -1.99 -0.61000001 12
20.548 -1.984 -0.71799999 15
8.7220001 -0.84200001 -0.061000001 3
18.417 -1.783 -0.23 1
17.927999 -1.7410001 -0.32100001 0
18.34 -1.7869999 -0.43099999 1
20.554001 -2.0090001 -0.59500003 7
20.650999 -2.0250001 -0.70999998 8
8.6829996 -0.85100001 -0.056000002 3
8.6789999 -0.85299999 -0.103 3
8.6870003 -0.85699999 -0.15000001 3
8.7030001 -0.861 -0.199 4
8.7150002 -0.86500001 -0.24699999 4
20.267 -2.0179999 -0.685 1
8.6400003 -0.85900003 -0.050000001 3
8.6160002 -0.86000001 -0.097000003 3
8.6339998 -0.86400002 -0.14399999 3
8.6490002 -0.86799997 -0.192 3
8.651 -0.87099999 -0.23899999 3
8.6619997 -0.875 -0.287 3
8.6049995 -0.86900002 -0.045000002 3
8.6079998 -0.87099999 -0.090999998 3
8.6090002 -0.87400001 -0.138 3
8.6049995 -0.87599999 -0.186 3
8.6079998 -0.87900001 -0.23199999 2
8.6300001 -0.884 -0.28 3
8.6029997 -0.88099998 -0.039000001 3
8.5979996 -0.88200003 -0.085000001 3
8.6009998 -0.88499999 -0.132 3
8.5900002 -0.88599998 -0.17900001 3
8.6059999 -0.89099997 -0.226 3
8.6199999 -0.89399999 -0.27399999 3
8.6029997 -0.89200002 -0.033 2
8.6059999 -0.89499998 -0.079000004 3
8.6000004 -0.89700001 -0.126 3
8.5930004 -0.898 -0.17299999 3
8.592 -0.90100002 -0.22 5
8.6070004 -0.90499997 -0.26699999 4
8.6009998 -0.90399998 -0.026000001 2
8.6029997 -0.90600002 -0.072999999 2
8.6040001 -0.90799999 -0.12 3
8.5889997 -0.90899998 -0.167 2
8.6040001 -0.91299999 -0.214 4
8.6070004 -0.91600001 -0.26100001 5
8.6009998 -0.91500002 -0.02 2
8.5970001 -0.917 -0.067000002 2
8.6000004 -0.91900003 -0.113 3
8.5970001 -0.921 -0.16 2
8.599 -0.92400002 -0.207 4
8.6070004 -0.92699999 -0.25400001 3
17.452 -0.93900001 -0.183 25
16.983999 -0.92000002 -0.27200001 15
16.834999 -0.91799998 -0.36399999 21
16.809 -0.92199999 -0.45899999 22
16.812 -0.92900002 -0.55299997 20
16.813999 -0.935 -0.64700001 17
16.819 -0.93800002 -0.18099999 17
16.809 -0.94300002 -0.27399999 15
16.808001 -0.949 -0.368 18
16.791 -0.954 -0.463 21
16.791 -0.96100003 -0.55699998 21
16.716 -0.96200001 -0.648 17
16.788 -0.96899998 -0.185 11
16.801001 -0.97500002 -0.278 22
16.688 -0.97500002 -0.37 28
16.636999 -0.97799999 -0.463 21
0 0 0 0
15.377 -0.91500002 -0.59899998 16
0 0 0 0
0 0 0 0
15.562 -0.93900001 -0.34799999 13
15.209 -0.92299998 -0.426 14
15.158 -0.92500001 -0.509 14
15.011 -0.92199999 -0.588 16
14.736 -0.90700001 -0.168 12
14.694 -0.91000003 -0.249 9
14.69 -0.91500002 -0.331 8
14.645 -0.917 -0.41299999 10
14.651 -0.92299998 -0.49399999 10
14.607 -0.92500001 -0.574 7
14.623 -0.92799997 -0.168 9
14.619 -0.93300003 -0.25 8
14.6 -0.93699998 -0.33000001 9
14.596 -0.94199997 -0.41299999 7
14.602 -0.94800001 -0.49399999 8
14.422 -0.94099998 -0.56800002 7
14.64 -0.95700002 -0.17 10
14.625 -0.96100003 -0.25099999 10
14.48 -0.95700002 -0.329 11
14.334 -0.95200002 -0.40700001 8
14.288 -0.95499998 -0.48500001 9
14.16 -0.95099998 -0.55900002 11
14.481 -0.97399998 -0.169 11
14.302 -0.96700001 -0.24600001 9
14.126 -0.95999998 -0.322 13
14.12 -0.96499997 -0.40099999 14
14.087 -0.96799999 -0.47799999 7
14.103 -0.97399998 -0.55699998 8
14.092 -0.97399998 -0.16500001 8
14.091 -0.97899997 -0.243 10
14.096 -0.98500001 -0.32100001 12
14.068 -0.98799998 -0.40000001 12
13.709 -0.96700001 -0.465 4
13.563 -0.96200001 -0.53600001 8
14.098 -1.001 -0.16500001 10
14.055 -1.003 -0.242 11
13.582 -0.97399998 -0.30899999 11
13.512 -0.97399998 -0.38299999 11
13.273 -0.96100003 -0.44999999 8
13.17 -0.958 -0.51899999 15
13.531 -0.986 -0.15700001 9
13.195 -0.96600002 -0.226 6
13.179 -0.96899998 -0.29899999 12
13.17 -0.97299999 -0.373 13
13.155 -0.977 -0.44499999 13
13.156 -0.98199999 -0.51800001 16
13.156 -0.98199999 -0.152 7
13.149 -0.986 -0.22400001 6
13.154 -0.991 -0.29699999 12
13.143 -0.995 -0.37 13
13.136 -0.99900001 -0.44299999 14
13.147 -1.005 -0.51599997 16
13.169 -1.007 -0.15000001 7
13.145 -1.01 -0.222 7
13.148 -1.015 -0.29499999 12
13.138 -1.018 -0.368 12
13.12 -1.022 -0.44 10
13.071 -1.023 -0.51099998 12
13.172 -1.031 -0.148 9
13.157 -1.034 -0.22 8
13.124 -1.036 -0.292 10
12.494 -0.991 -0.34799999 7
12.196 -0.97100002 -0.40700001 6
11.962 -0.95700002 -0.465 7
12.374 -0.99000001 -0.13600001 7
12.306 -0.98900002 -0.20299999 6
11.817 -0.954 -0.25999999 5
11.801 -0.95700002 -0.32600001 5
11.673 -0.94999999 -0.38699999 6
11.643 -0.95200002 -0.44999999 8
11.688 -0.95599997 -0.126 5
11.672 -0.95899999 -0.19 5
11.648 -0.96100003 -0.25299999 8
11.618 -0.96200001 -0.31799999 5
11.631 -0.96700001 -0.382 7
11.616 -0.97000003 -0.44600001 11
35.653999 -0.81 -0.02 34
35.653999 -0.82200003 -0.222 31
0 0 0 0
0 0 0 0
33.567001 -0.80699998 -0.78299999 20
32.710999 -0.79799998 -0.949 16
35.660999 -0.87900001 -0.052000001 15
32.676998 -0.81599998 -0.233 24
31.976 -0.80900002 -0.40900001 23
0 0 0 0
31.153999 -0.80900002 -0.75400001 34
30.789 -0.81 -0.92000002 15
0 0 0 0
31.077 -0.83600003 -0.248 28
30.782 -0.838 -0.41999999 29
30.309 -0.83499998 -0.588 34
30.202999 -0.84200001 -0.75700003 32
29.701 -0.838 -0.91299999 17
29.687 -0.84500003 -0.093999997 18
29.641001 -0.85399997 -0.26100001 22
0 0 0 0
28.870001 -0.85100001 -0.58399999 20
0 0 0 0
27.691 -0.83499998 -0.87300003 11
27.513 -0.83600003 -0.109 9
27.458 -0.84399998 -0.26300001 17
27.34 -0.84899998 -0.417 27
26.927 -0.84600002 -0.565 26
26.85 -0.852 -0.71499997 23
26.700001 -0.85699999 -0.86199999 13
26.642 -0.861 -0.125 29
26.639999 -0.87 -0.27500001 15
26.625999 -0.87800002 -0.42500001 19
0 0 0 0
0 0 0 0
0 0 0 0
0 0 0 0
24.641001 -0.852 -0.27200001 21
24.509001 -0.85600001 -0.40900001 20
24.486 -0.86400002 -0.54900002 17
24.059999 -0.85699999 -0.67500001 19
23.945 -0.861 -0.80699998 18
23.771999 -0.86000001 -0.145 22
23.687 -0.86500001 -0.27700001 21
23.67 -0.87300003 -0.41100001 21
23.628 -0.87900001 -0.54500002 17
23.636 -0.88800001 -0.67900002 16
22.973 -0.87099999 -0.78899997 11
23.655001 -0.90200001 -0.15899999 29
23.646 -0.91000003 -0.292 31
23.615999 -0.917 -0.42500001 20
0 0 0 0
21.691 -0.85699999 -0.63599998 22
21.452 -0.85500002 -0.75 24
0 0 0 0
21.009001 -0.84899998 -0.27200001 17
20.976999 -0.85500002 -0.389 19
20.865 -0.85799998 -0.50700003 19
21.056 -0.87400001 -0.63 24
21.002001 -0.87900001 -0.74699998 22
20.643999 -0.86799997 -0.163 17
20.641001 -0.875 -0.27900001 18
20.635 -0.88200003 -0.39500001 13
20.643 -0.88999999 -0.51300001 23
20.642 -0.89700001 -0.62900001 24
20.634001 -0.90399998 -0.745 18
20.65 -0.90899998 -0.17399999 22
20.601 -0.91399997 -0.289 18
20.128 -0.89999998 -0.39500001 12
19.892 -0.89700001 -0.50400001 18
19.316999 -0.87800002 -0.59799999 22
19.325001 -0.88499999 -0.70700002 29
0 0 0 0
18.655001 -0.86500001 -0.271 11
0 0 0 0
0 0 0 0
19.261 -0.91299999 -0.60600001 23
0 0 0 0
17.693001 -0.84799999 -0.16599999 16
17.716999 -0.85600001 -0.26499999 14
17.671 -0.86000001 -0.36300001 18
17.653999 -0.866 -0.46399999 16
17.660999 -0.87199998 -0.56300002 13
17.646999 -0.87800002 -0.66100001 15
17.643 -0.88099998 -0.17200001 14
17.621 -0.88599998 -0.271 11
17.635 -0.89300001 -0.36899999 19
17.618999 -0.898 -0.47 17
17.479 -0.898 -0.56400001 11
17.377001 -0.89899999 -0.65799999 11
17.615999 -0.91399997 -0.178 13
17.632 -0.921 -0.27700001 25
17.551001 -0.92299998 -0.37400001 22
17.313999 -0.917 -0.46799999 23
16.947001 -0.903 -0.55199999 18
16.844999 -0.90399998 -0.64300001 18
57.443001 0.31299999 1.058 24
57.456001 0.29800001 0.73000002 27
188.36501 0.92900002 1.313 39
290.625 1.3559999 0.331 10
172.164 0.75800002 -0.79000002 27
57.469002 0.237 -0.59299999 39
57.448002 0.222 0.97799999 37
57.458 0.206 0.64899999 27
188.467 0.62699997 1.049 10
291.487 0.89399999 -0.072999999 14
170.739 0.47600001 -1.022 4
57.460999 0.14399999 -0.67299998 42
57.450001 0.12800001 0.898 32
57.479 0.113 0.56999999 27
252.28 0.426 1.056 7
173.808 0.24699999 -0.28299999 14
57.567001 0.066 -0.42300001 4
57.457001 0.048999999 -0.75199997 39
57.455002 0.033 0.81999999 32
57.509998 0.017999999 0.49200001 21
189.17799 0.0049999999 0.53600001 38
170.30901 -0.041999999 -0.50800002 13
57.514999 -0.028999999 -0.5 22
57.435001 -0.045000002 -0.82800001 30
57.457001 -0.061000001 0.74400002 36
57.549 -0.078000002 0.41600001 2
147.228 -0.241 0.22400001 10
138.601 -0.266 -0.59500003 9
57.466999 -0.127 -0.57499999 25
57.466 -0.14300001 -0.90399998 37
57.455002 -0.15899999 0.66900003 25
57.506001 -0.176 0.34 9
57.534 -0.192 0.012 25
57.487 -0.20900001 -0.32100001 31
57.408001 -0.226 -0.64899999 27
57.480999 -0.242 -0.97799999 40
57.473 -0.25799999 0.59600002 44
57.501999 -0.27599999 0.26800001 32
57.485001 -0.292 -0.059 47
57.466999 -0.30899999 -0.39399999 44
57.462002 -0.32600001 -0.722 38
57.494999 -0.34299999 -1.051 37
57.493999 -0.359 0.52399999 44
57.487 -0.37599999 0.19599999 40
57.484001 -0.39300001 -0.131 40
57.476002 -0.41100001 -0.46599999 45
57.444 -0.42699999 -0.79299998 31
57.507999 -0.44499999 -1.122 15
57.488998 -0.461 0.454 48
57.48 -0.47799999 0.127 36
57.485001 -0.49599999 -0.2 36
57.486 -0.51300001 -0.53399998 43
57.479 -0.52899998 -0.861 40
47.195 -0.449 -0.977 11
57.493 -0.56400001 0.38600001 47
57.487999 -0.58200002 0.059 38
57.48 -0.59799999 -0.26800001 44
57.478001 -0.616 -0.60100001 38
57.497002 -0.634 -0.92900002 44
0 0 0 0
57.514 -0.667 0.32100001 50
57.514 -0.685 -0.0060000001 41
57.533001 -0.704 -0.33399999 35
57.573002 -0.72100002 -0.667 17
54.541 -0.69999999 -0.94300002 23
45.312 -0.59600002 -1.0420001 16
57.625 -0.773 0.257 8
54.636002 -0.75 -0.066 36
54.638 -0.76700002 -0.377 4
52.375999 -0.75199997 -0.66500002 19
49.071999 -0.72000003 -0.90200001 19
44.632 -0.66900003 -1.075 9
47.43 -0.72399998 0.16 13
47.424999 -0.73900002 -0.108 18
47.416 -0.75300002 -0.37799999 9
44.819 -0.72600001 -0.616 16
44.842999 -0.741 -0.87199998 15
40.981998 -0.69 -1.03 14
44.651001 -0.764 0.104 37
44.648998 -0.778 -0.148 5
44.490002 -0.78899997 -0.40000001 6
41.694 -0.75300002 -0.61699998 20
41.645 -0.76499999 -0.852 27
38.562 -0.72100002 -1.008 11
41.658001 -0.79000002 0.055 27
38.700001 -0.74599999 -0.167 18
38.695999 -0.759 -0.38699999 21
38.660999 -0.76999998 -0.61000001 24
38.220001 -0.77399999 -0.81999999 19
37.446999 -0.76999998 -1.016 14
38.637001 -0.80500001 0.014 26
0 0 0 0
36.963001 -0.79400003 -0.405 12
36.301998 -0.792 -0.60799998 19
36.175999 -0.80000001 -0.81 35
35.730999 -0.80299997 -1.003 8
36.889 1.001 1.6339999 21
37.381001 1.007 1.439 11
37.974998 1.016 1.242 12
38.327 1.0190001 1.028 21
38.551998 1.018 0.81199998 23
38.549999 1.01 0.58899999 19
37.937 0.98799998 1.614 12
38.737999 1.001 1.424 12
41.171001 1.056 1.275 2
41.122002 1.0470001 1.0319999 6
41.453999 1.0470001 0.801 23
41.714001 1.046 0.565 33
0 0 0 0
41.777 1.0319999 1.4630001 21
41.844002 1.025 1.223 26
41.955002 1.02 0.98000002 30
42.104 1.015 0.74000001 28
46.166 1.104 0.54500002 7
42.139 0.99900001 1.646 23
46.102001 1.084 1.535 6
46.159 1.076 1.27 9
46.16 1.067 0.99900001 38
46.195999 1.059 0.73400003 39
46.222 1.05 0.46700001 34
45.762001 1.03 1.71 20
46.18 1.03 1.459 14
49.852001 1.102 1.2869999 4
46.230999 1.012 0.92199999 17
52.457001 1.137 0.74400002 9
52.484001 1.127 0.442 26
48.529999 1.0319999 1.7309999 20
50.216999 1.057 1.502 27
52.459 1.0930001 1.266 23
54.643002 1.127 0.99800003 5
57.449001 1.1720001 0.71700001 14
57.453999 1.16 0.38600001 36
49.983002 0.99800003 1.699 36
51.123001 1.01 1.443 22
57.449001 1.123 1.291 28
57.438999 1.11 0.95300001 34
57.466999 1.098 0.62199998 35
57.486 1.086 0.292 22
50.088001 0.935 1.62 36
57.485001 1.0599999 1.527 10
57.459 1.0470001 1.196 37
57.453999 1.033 0.85799998 33
57.5 1.022 0.528 29
69.675003 1.222 0.23899999 16
50.278 0.87 1.544 21
57.465 0.98199999 1.433 26
57.453999 0.96799999 1.102 27
57.462002 0.95499998 0.76499999 28
57.504002 0.94300002 0.43399999 6
78.681 1.273 0.142 14
54.492001 0.86799997 1.585 27
57.452 0.90200001 1.34 27
57.456001 0.889 1.01 36
57.459 0.87599999 0.67299998 32
84.732002 1.271 0.505 14
87.695999 1.296 0.018999999 13
54.514 0.792 1.499 36
57.460999 0.82099998 1.249 27
57.438 0.80699998 0.91799998 29
57.466999 0.79299998 0.58200002 29
101.157 1.373 0.44299999 16
108.745 1.45 -0.148 6
57.466999 0.75099999 1.489 14
57.445 0.73699999 1.158 27
57.448002 0.72299999 0.82700002 32
57.485001 0.70999998 0.49200001 20
123.656 1.4960001 0.347 6
132.65601 1.572 -0.38999999 18
57.469002 0.667 1.4 23
57.438 0.65200001 1.069 27
57.452 0.63800001 0.73900002 33
135.64999 1.472 0.95099998 19
153.25101 1.627 0.19499999 27
165.207 1.7130001 -0.73699999 12
57.465 0.58099997 1.313 33
57.445 0.56599998 0.98199999 29
57.469002 0.551 0.65200001 38
179.524 1.677 0.98799998 7
189.242 1.722 -0.043000001 8
171.272 1.5140001 -1.023 17
57.455002 0.49200001 1.226 26
57.445999 0.47799999 0.89600003 31
57.479 0.46399999 0.56699997 27
249.937 1.951 1.0039999 7
291.45599 2.2030001 -0.49900001 17
57.541 0.41999999 -0.428 6
57.444 0.403 1.141 25
57.457001 0.389 0.81199998 27
57.506001 0.37400001 0.48300001 17
290.487 1.8150001 0.745 19
291.38599 1.748 -0.921 150
57.491001 0.329 -0.51099998 23
23.799999 0.94400001 1.7460001 14
23.952 0.94800001 1.618 14
24.1 0.95099998 1.488 17
24.118 0.949 1.346 17
26.587 1.044 1.33 7
26.594 1.041 1.176 7
23.909 0.93699998 1.711 19
24.32 0.94999999 1.599 20
24.414 0.95099998 1.4630001 18
26.566 1.0319999 1.4349999 8
25.841999 1.002 1.2460001 15
25.9 1.001 1.098 18
23.972 0.92699999 1.671 16
24.330999 0.93800002 1.5549999 19
24.950001 0.95899999 1.449 13
25.931999 0.99400002 1.352 18
26.57 1.015 1.232 22
26.632 1.015 1.08 29
24.417999 0.93000001 1.6569999 18
25.059999 0.95099998 1.5549999 10
25.837 0.97799999 1.4529999 13
26.580999 1.003 1.3380001 25
26.601 1 1.184 22
26.629999 0.99900001 1.0319999 29
25.01 0.93699998 1.651 13
25.951 0.97000003 1.563 14
26.598 0.99000001 1.447 23
26.593 0.98699999 1.29 22
26.606001 0.98400003 1.136 23
26.634001 0.98199999 0.98299998 32
0 0 0 0
26.612 0.977 1.554 17
26.618 0.97399998 1.399 17
26.605 0.97000003 1.2410001 19
26.607 0.96600002 1.087 24
26.613001 0.963 0.93300003 25
26.743999 0.96700001 1.668 17
26.684999 0.96100003 1.5089999 14
26.68 0.95700002 1.354 15
26.648001 0.95300001 1.1950001 16
26.646 0.949 1.04 20
26.655001 0.94499999 0.88599998 19
26.697001 0.94599998 1.6160001 16
26.73 0.94300002 1.462 16
29.611 1.041 1.448 14
29.614 1.0369999 1.274 12
29.614 1.0319999 1.102 13
29.617001 1.028 0.93000001 16
27.527 0.954 1.6160001 13
28.627001 0.98799998 1.5140001 13
29.625 1.018 1.395 24
29.606001 1.013 1.219 29
29.629 1.01 1.049 25
29.636 1.006 0.87699997 25
0 0 0 0
29.614 0.99800003 1.512 21
29.634001 0.99400002 1.341 21
29.643999 0.99000001 1.1670001 21
29.643 0.986 0.995 17
32.615002 1.08 0.90600002 17
29.773001 0.98299998 1.6390001 17
29.809999 0.97899997 1.467 14
32.605999 1.066 1.416 12
32.616001 1.061 1.224 19
32.622002 1.057 1.036 33
32.610001 1.051 0.847 32
30.409 0.977 1.619 19
31.594 1.01 1.499 11
32.618 1.038 1.358 32
32.618 1.0319999 1.166 30
32.618 1.027 0.977 34
32.623001 1.022 0.78799999 29
31.871 0.995 1.6390001 17
32.626999 1.013 1.489 25
32.629002 1.008 1.3 26
32.639 1.002 1.108 25
32.664001 0.99800003 0.92000002 21
32.717999 0.99400002 0.73199999 18
32.688999 0.98900002 1.622 24
32.803001 0.98699999 1.438 14
33.124001 0.991 1.26 11
0 0 0 0
35.630001 1.054 0.94 1
0 0 0 0
33.363998 0.97600001 1.597 32
33.990002 0.98799998 1.429 16
33.957001 0.98199999 1.2309999 20
0 0 0 0
35.654999 1.018 0.87699997 24
35.695999 1.013 0.671 13
33.992001 0.95899999 1.566 22
0 0 0 0
0 0 0 0
0 0 0 0
38.077999 1.046 0.86900002 7
38.271 1.045 0.65200001 23
16.438 0.69099998 1.669 11
18.219 0.76499999 1.744 12
18.695 0.78500003 1.681 12
20.690001 0.86799997 1.737 11
21.421 0.89899999 1.674 14
0 0 0 0
16.790001 0.708 1.677 13
18.235001 0.76800001 1.715 13
19.240999 0.81 1.698 10
20.874001 0.87900001 1.7180001 15
21.934 0.92299998 1.677 13
22.860001 0.96200001 1.6160001 17
16.862 0.713 1.656 11
18.261999 0.77100003 1.687 11
19.76 0.83399999 1.71 13
21.051001 0.88800001 1.697 17
22.204 0.93599999 1.661 11
22.812 0.96100003 1.574 18
17.91 0.75800002 1.729 11
18.382 0.778 1.6670001 13
20.503 0.86699998 1.74 11
21.118 0.89200002 1.6670001 11
22.816999 0.963 1.668 19
22.832001 0.963 1.5369999 19
18.225 0.77200001 1.728 13
18.976 0.80299997 1.689 11
20.775999 0.87900001 1.728 12
21.618999 0.91399997 1.67 11
22.795 0.963 1.628 19
0 0 0 0
18.243999 0.773 1.699 12
19.311001 0.81699997 1.6849999 8
21.018 0.889 1.712 16
22.157 0.93599999 1.673 13
22.784 0.96100003 1.5880001 16
0 0 0 0
18.289 0.77399999 1.671 13
20.073 0.84899998 1.717 10
21.1 0.89099997 1.682 14
0 0 0 0
22.844 0.96200001 1.552 19
23.040001 0.97000003 1.432 15
18.789 0.79400003 1.684 12
20.731001 0.875 1.737 11
21.533001 0.90700001 1.678 14
22.843 0.96100003 1.645 19
0 0 0 0
23.605 0.991 1.425 20
19.253 0.81099999 1.691 8
20.955 0.88099998 1.7180001 15
22.153999 0.93000001 1.687 14
22.903 0.95999998 1.609 14
22.969 0.96200001 1.48 10
23.635 0.98799998 1.386 22
19.962 0.83700001 1.7180001 9
21.094 0.88300002 1.692 16
0 0 0 0
23.086 0.96399999 1.58 15
23.605 0.98400003 1.479 17
23.636999 0.98400003 1.344 23
20.761 0.86699998 1.749 12
21.492001 0.89600003 1.686 15
22.995001 0.95700002 1.669 14
23.599001 0.98000002 1.574 17
23.622999 0.97899997 1.438 18
23.607 0.977 1.3 20
21.009001 0.87199998 1.733 15
22.108 0.91600001 1.694 17
23.474001 0.97000003 1.6619999 17
23.612 0.97399998 1.5319999 15
23.618 0.97299999 1.395 18
23.615999 0.97100002 1.258 16
21.089001 0.86900002 1.701 18
22.829 0.93900001 1.7079999 20
23.629999 0.97000003 1.631 14
23.629 0.96799999 1.4910001 15
23.629999 0.96600002 1.353 16
23.627001 0.96399999 1.216 16
21.5 0.87900001 1.696 16
23.681 0.96600002 1.729 19
23.674 0.96399999 1.591 13
23.650999 0.96100003 1.449 15
23.645 0.958 1.311 16
23.632999 0.95599997 1.173 16
22.135 0.89700001 1.705 18
23.698 0.958 1.687 16
23.686001 0.95499998 1.548 13
23.672001 0.95300001 1.4069999 15
23.705999 0.95200002 1.272 13
23.679001 0.949 1.133 13
0 0 0 0
23.725 0.949 1.646 13
23.722 0.94700003 1.507 14
23.813 0.94800001 1.372 14
23.856001 0.94800001 1.2359999 16
23.736 0.94099998 1.0930001 17
14.087 0.49000001 1.7539999 14
15.226 0.53100002 1.807 15
15.271 0.53299999 1.723 12
16.16 0.56599998 1.728 14
16.542 0.57999998 1.673 8
18.254 0.64200002 1.7410001 13
14.092 0.5 1.737 13
15.235 0.542 1.79 17
15.277 0.54400003 1.706 9
16.198999 0.57800001 1.7130001 14
16.780001 0.60000002 1.677 8
18.257999 0.65399998 1.719 14
14.116 0.50999999 1.723 12
15.241 0.55199999 1.771 15
15.515 0.56300002 1.7130001 11
16.214001 0.58899999 1.694 14
16.981001 0.61799997 1.676 10
18.261999 0.66600001 1.696 14
14.144 0.51999998 1.7079999 11
15.256 0.56199998 1.7539999 16
15.81 0.583 1.725 10
16.202999 0.59899998 1.6720001 11
17.573999 0.65100002 1.712 9
18.351 0.68000001 1.681 11
14.631 0.54699999 1.748 12
15.261 0.57099998 1.734 14
16.118 0.60399997 1.738 9
16.372999 0.61500001 1.668 9
18.195999 0.68400002 1.749 10
18.787001 0.70700002 1.697 8
15.231 0.57800001 1.8 17
15.275 0.57999998 1.716 14
16.167999 0.61500001 1.721 11
16.667999 0.63499999 1.676 8
18.25 0.69599998 1.729 16
19.208 0.73400003 1.709 9
15.234 0.58700001 1.779 19
15.293 0.58899999 1.697 12
16.208 0.625 1.704 14
16.785999 0.648 1.665 8
18.256001 0.70599997 1.705 16
19.247 0.745 1.686 8
15.25 0.59500003 1.76 20
15.499 0.60500002 1.698 11
16.207001 0.63300002 1.681 10
17.413 0.68099999 1.7029999 11
18.264 0.71499997 1.6799999 11
0 0 0 0
15.256 0.602 1.739 18
15.867 0.62699997 1.716 10
16.337 0.64600003 1.671 10
18.117001 0.71700001 1.7460001 11
18.555 0.73500001 1.6799999 10
21.021999 0.833 1.7819999 16
15.273 0.61000001 1.7180001 18
16.16 0.64600003 1.723 10
16.621 0.66399997 1.676 12
18.242001 0.72899997 1.7309999 17
19.066999 0.76300001 1.699 11
21.080999 0.84399998 1.756 18
15.277 0.616 1.696 15
16.187 0.653 1.702 10
16.789 0.67799997 1.668 10
18.215 0.73500001 1.701 14
19.254 0.778 1.687 8
21.104 0.85299999 1.726 19
15.488 0.63 1.696 12
16.215 0.66000003 1.681 9
17.419001 0.70899999 1.704 11
18.243999 0.74299997 1.676 11
0 0 0 0
21.101 0.86000001 1.694 17
16.163 0.66299999 1.745 14
16.351 0.671 1.67 10
18.087 0.74299997 1.742 11
18.535 0.76099998 1.675 11
20.837 0.85600001 1.762 10
21.295 0.875 1.677 15
16.193001 0.66900003 1.723 13
16.756001 0.69300002 1.6849999 14
18.232 0.75400001 1.727 13
19.045 0.787 1.691 11
21.011 0.86900002 1.743 14
21.726 0.898 1.677 14
16.186001 0.67299998 1.696 10
16.790001 0.69800001 1.6619999 10
18.233999 0.75800002 1.698 12
19.26 0.801 1.679 8
21.045 0.875 1.7130001 15
22.155001 0.921 1.674 17
16.218 0.67799997 1.674 9
0 0 0 0
18.271 0.764 1.6720001 12
20.002001 0.83600003 1.712 8
21.1 0.88200003 1.683 15
22.849001 0.954 1.6900001 18
12.661 0.25799999 1.753 6
13.137 0.27000001 1.743 5
14.089 0.29100001 1.789 10
14.274 0.29699999 1.728 9
15.255 0.31999999 1.76 13
16.159 0.34099999 1.772 20
12.671 0.271 1.748 6
13.15 0.28400001 1.738 5
14.064 0.30500001 1.777 8
14.571 0.31900001 1.756 11
15.265 0.336 1.752 13
16.174 0.35800001 1.7640001 21
12.727 0.28600001 1.747 5
13.181 0.29800001 1.734 4
14.07 0.31999999 1.7690001 7
15.19 0.34799999 1.821 14
15.277 0.352 1.744 15
16.174999 0.375 1.7539999 21
12.835 0.301 1.7539999 4
13.304 0.31400001 1.7410001 5
14.085 0.33500001 1.762 9
15.21 0.36300001 1.814 16
15.278 0.36700001 1.734 14
16.187 0.391 1.744 18
12.93 0.317 1.758 6
13.538 0.333 1.762 5
