# .PCD v0.7 - Point Cloud Data file format
VERSION 0.7
FIELDS x y z intensity
SIZE 4 4 4 4
TYPE F F F F
COUNT 1 1 1 1
WIDTH 1750
HEIGHT 1
VIEWPOINT 0 0 0 1 0 0 0
POINTS 1750
DATA ascii
32.654999 0.995 0.46700001 20
32.626999 0.98699999 1.357 28
32.639 0.98000002 1.169 25
32.667 0.97399998 0.98199999 23
32.716 0.96899998 0.79100001 17
32.999001 0.97000003 0.60799998 8
0 0 0 0
33.271999 0.96399999 1.329 10
33.297001 0.958 1.138 12
35.618 1.016 1.012 1
0 0 0 0
35.647999 1.002 0.59899998 25
35.695999 0.995 0.39399999 16
17.346001 0.87800002 1.628 9
17.643 0.89200002 1.552 9
17.620001 0.88999999 1.448 10
17.622 0.889 1.344 8
17.643999 0.889 1.243 9
17.636 0.88800001 1.14 13
17.254999 0.87199998 1.59 10
17.643999 0.89099997 1.523 10
17.667999 0.89099997 1.4220001 8
17.625999 0.88700002 1.314 9
17.650999 0.88800001 1.2130001 9
17.632 0.88599998 1.11 14
17.599001 0.88700002 1.592 9
17.631001 0.88700002 1.492 11
17.677999 0.889 1.393 8
17.635 0.88499999 1.285 10
17.629999 0.884 1.182 9
17.612 0.88200003 1.079 11
17.683001 0.88800001 1.569 8
17.631001 0.884 1.462 11
17.683001 0.88599998 1.363 7
17.658001 0.88300002 1.257 9
17.618999 0.88 1.152 11
20.742001 1.035 1.235 7
17.716 0.88599998 1.5420001 9
17.719999 0.88499999 1.438 8
17.709999 0.88300002 1.335 8
17.738001 0.88300002 1.232 8
17.632 0.87599999 1.122 8
20.752001 1.03 1.2 8
17.726999 0.88200003 1.512 9
17.834 0.88599998 1.4170001 8
17.743 0.88 1.307 9
17.659 0.87400001 1.196 6
20.715 1.024 1.2819999 6
20.752001 1.024 1.165 6
17.671 0.87400001 1.476 8
17.861 0.88200003 1.388 8
18.205 0.89700001 1.309 12
20.597 1.013 1.359 4
20.709999 1.017 1.2460001 9
0 0 0 0
17.809 0.875 1.456 8
17.926001 0.87900001 1.3609999 8
0 0 0 0
20.599001 1.006 1.322 6
20.007999 0.97600001 1.169 12
30.268 1.473 1.5930001 3
18.264 0.88999999 1.461 9
0 0 0 0
18.535999 0.89999998 1.267 8
19.968 0.96700001 1.247 9
19.997999 0.96700001 1.132 9
19.893 0.95999998 1.011 16
18.608999 0.89899999 1.456 10
18.759001 0.90399998 1.358 9
19.808001 0.95300001 1.319 14
20.014 0.96100003 1.214 12
19.864 0.95200002 1.09 15
20.011 0.95700002 0.98199999 14
18.777 0.89899999 1.4349999 7
19.209999 0.917 1.3559999 11
20.004 0.95300001 1.296 13
19.837999 0.94300002 1.168 15
20.028999 0.94999999 1.063 12
20.632 0.97600001 0.97600001 22
19.281 0.91299999 1.439 8
19.408001 0.917 1.336 13
19.899 0.93800002 1.2539999 18
20.531 0.96499997 1.173 13
20.638 0.96799999 1.059 22
20.642 0.96600002 0.94 23
19.719999 0.92299998 1.437 14
0 0 0 0
20.636 0.96100003 1.2640001 22
20.598 0.95700002 1.14 17
20.615999 0.95499998 1.021 20
20.635 0.954 0.903 21
19.624001 0.90700001 1.395 14
20.612 0.94999999 1.345 17
20.632999 0.949 1.227 12
20.599001 0.94400001 1.103 16
20.627001 0.94300002 0.98500001 19
20.649 0.94199997 0.86699998 22
20.201 0.921 1.4 12
20.621 0.93699998 1.309 17
20.628 0.935 1.1900001 13
20.641001 0.93300003 1.069 22
20.622999 0.93000001 0.949 18
20.607 0.926 0.829 15
20.622 0.92699999 1.392 12
20.628 0.92400002 1.273 13
20.624001 0.921 1.153 15
20.606001 0.917 1.03 14
20.631001 0.91600001 0.912 16
21.27 0.94099998 0.81699997 17
14.338 0.671 1.694 8
15.248 0.71399999 1.712 14
16.02 0.75099999 1.706 11
16.386999 0.76899999 1.648 9
17.851 0.838 1.692 9
18.402 0.86500001 1.638 8
15.226 0.72000003 1.779 12
15.272 0.72299999 1.6950001 13
16.200001 0.76700002 1.704 14
16.780001 0.79500002 1.665 13
17.955 0.852 1.678 8
18.641001 0.88499999 1.6339999 9
15.235 0.72799999 1.7589999 14
15.294 0.73100001 1.676 8
16.186001 0.77399999 1.6799999 11
16.77 0.80299997 1.641 12
18.007999 0.86299998 1.658 9
18.662001 0.89499998 1.61 9
15.241 0.73500001 1.738 14
15.501 0.74800003 1.677 8
16.208 0.78299999 1.66 9
17.113001 0.82700002 1.651 9
17.895 0.86500001 1.623 7
18.360001 0.88800001 1.558 9
15.25 0.74199998 1.7180001 13
15.889 0.773 1.697 11
16.282 0.792 1.6440001 8
17.773001 0.866 1.6900001 7
17.909 0.87199998 1.599 7
17.76 0.86500001 1.482 7
15.262 0.74800003 1.697 14
16.193001 0.79400003 1.706 15
16.601999 0.81400001 1.653 9
17.929001 0.87900001 1.678 8
17.9 0.87800002 1.572 8
17.735001 0.87 1.454 8
15.273 0.75400001 1.676 9
16.177999 0.79900002 1.6799999 10
16.781 0.82800001 1.645 11
17.756001 0.87699997 1.636 8
17.827999 0.88 1.539 9
17.827 0.88 1.436 8
15.499 0.76999998 1.677 8
16.202999 0.80500001 1.659 8
16.976 0.84299999 1.6390001 8
17.657 0.87699997 1.6 9
17.747 0.88099998 1.506 8
17.818001 0.88499999 1.409 8
16.111 0.80400002 1.719 15
16.289 0.81300002 1.643 7
17.386999 0.86799997 1.653 7
17.691 0.88300002 1.577 7
17.648001 0.88 1.471 8
17.726 0.884 1.374 8
16.204 0.81300002 1.704 15
16.587 0.83099997 1.648 9
17.711 0.88800001 1.656 8
17.683001 0.88599998 1.549 8
17.649 0.884 1.443 9
17.667 0.88499999 1.342 8
16.188 0.815 1.677 10
16.775 0.84399998 1.64 9
17.601999 0.88499999 1.618 10
17.643999 0.88700002 1.518 10
17.683001 0.889 1.419 8
17.636 0.88599998 1.312 9
16.204 0.81800002 1.653 7
16.952 0.85500002 1.631 8
17.594 0.88700002 1.59 9
17.621 0.88800001 1.488 11
17.653999 0.889 1.388 7
17.620001 0.88700002 1.283 10
16.365999 0.82800001 1.6440001 7
17.281 0.87400001 1.635 7
17.653999 0.89200002 1.567 8
17.607 0.889 1.459 11
17.639 0.88999999 1.359 8
17.629999 0.889 1.256 9
16.695999 0.84600002 1.65 11
17.275 0.87400001 1.6059999 9
17.634001 0.89200002 1.5369999 10
17.622 0.89099997 1.431 10
17.635 0.89099997 1.33 9
17.627001 0.88999999 1.227 9
16.789 0.85100001 1.631 9
17.209 0.87099999 1.571 9
17.628 0.89200002 1.507 10
17.632999 0.89099997 1.403 8
17.625 0.88999999 1.3 10
17.617001 0.889 1.197 10
17.089001 0.866 1.632 9
17.538 0.88800001 1.573 8
17.615 0.89099997 1.477 11
17.632999 0.89099997 1.374 7
17.635 0.88999999 1.272 9
17.615 0.889 1.168 11
12.914 0.447 1.738 7
13.329 0.463 1.717 9
14.093 0.491 1.734 12
15.227 0.53200001 1.784 18
15.277 0.53600001 1.702 11
16.188 0.56999999 1.711 12
13.104 0.46599999 1.7539999 10
13.534 0.48300001 1.733 9
14.104 0.50400001 1.725 12
15.219 0.546 1.772 19
15.288 0.55000001 1.692 11
16.200001 0.58499998 1.7 13
13.133 0.479 1.748 12
14.054 0.514 1.789 12
14.109 0.51800001 1.714 12
15.239 0.56099999 1.762 17
15.335 0.56599998 1.6849999 9
16.212999 0.60000002 1.688 14
13.148 0.491 1.739 11
14.069 0.52700001 1.779 12
14.126 0.53100002 1.704 11
15.231 0.574 1.748 20
15.427 0.583 1.682 10
16.226 0.61500001 1.676 12
13.162 0.50400001 1.729 9
14.077 0.54000002 1.768 13
14.141 0.54400003 1.694 11
15.24 0.588 1.7359999 19
15.684 0.60699999 1.696 11
16.205 0.62900001 1.659 9
13.164 0.51499999 1.7180001 8
14.08 0.55199999 1.756 13
14.235 0.56 1.692 17
15.246 0.60100001 1.723 18
16.162001 0.639 1.733 12
16.341 0.64700001 1.658 10
13.171 0.52700001 1.706 9
14.095 0.565 1.744 15
15.184 0.61000001 1.791 17
15.258 0.61400002 1.71 17
16.181 0.653 1.72 12
16.681999 0.67400002 1.677 14
13.168 0.537 1.693 10
14.092 0.57599998 1.73 14
15.22 0.62300003 1.78 16
15.273 0.62699997 1.696 14
16.183001 0.66600001 1.704 12
16.775999 0.69099998 1.67 13
13.217 0.54900002 1.686 10
14.091 0.58700001 1.715 13
15.236 0.63599998 1.766 16
15.295 0.639 1.683 13
16.198 0.67799997 1.689 11
16.798 0.70499998 1.655 12
14.019 0.59299999 1.773 12
14.116 0.59899998 1.704 11
15.243 0.648 1.751 17
15.382 0.65499997 1.676 10
16.197001 0.69 1.671 9
16.812 0.71799999 1.638 11
14.07 0.60600001 1.765 13
14.115 0.60900003 1.688 11
15.233 0.65799999 1.733 16
15.708 0.68000001 1.6950001 10
16.224001 0.70300001 1.656 7
0 0 0 0
14.089 0.61699998 1.751 15
14.146 0.62 1.676 13
15.25 0.66900003 1.7180001 14
16.164 0.70999998 1.725 13
16.365 0.72000003 1.652 9
18.238001 0.80400002 1.7359999 16
14.095 0.62599999 1.7359999 16
14.583 0.64899999 1.711 14
15.25 0.67900002 1.7 12
16.186001 0.722 1.709 12
16.716 0.74699998 1.668 13
18.224001 0.815 1.7130001 16
14.103 0.63599998 1.719 14
15.225 0.68699998 1.768 13
15.284 0.69 1.686 14
16.18 0.73199999 1.689 12
16.797001 0.76099998 1.656 15
18.132 0.82200003 1.683 12
14.113 0.64499998 1.7029999 12
15.238 0.69700003 1.75 14
15.342 0.70200002 1.673 9
16.179001 0.741 1.669 9
16.808001 0.77100003 1.636 13
18.229 0.83700001 1.669 12
14.106 0.653 1.6849999 7
15.235 0.70499998 1.7309999 14
15.68 0.727 1.6900001 9
16.205999 0.75199997 1.651 8
17.363001 0.80599999 1.668 11
18.261 0.84899998 1.649 9
12.486 0.21699999 1.752 6
13.118 0.23 1.766 5
14.073 0.249 1.8150001 14
14.091 0.252 1.7359999 6
15.224 0.27500001 1.789 15
15.548 0.28400001 1.739 11
12.477 0.23100001 1.75 5
13.124 0.245 1.766 6
14.064 0.26499999 1.813 12
14.089 0.26800001 1.735 7
15.222 0.292 1.788 15
15.453 0.29899999 1.728 13
12.44 0.244 1.745 6
13.117 0.25999999 1.765 6
14.076 0.28099999 1.813 9
14.084 0.28400001 1.733 6
15.221 0.31 1.7869999 15
15.384 0.31600001 1.719 12
12.451 0.259 1.745 5
13.124 0.27500001 1.7640001 6
13.914 0.294 1.791 6
14.088 0.30000001 1.732 8
15.232 0.32699999 1.786 14
15.401 0.333 1.719 11
12.421 0.27200001 1.739 6
13.119 0.28999999 1.761 6
13.99 0.31099999 1.798 7
14.099 0.31600001 1.7309999 10
15.234 0.34400001 1.783 14
15.397 0.34999999 1.715 12
12.453 0.287 1.7410001 6
13.12 0.30500001 1.7589999 6
14.08 0.329 1.807 11
14.108 0.33199999 1.729 12
15.24 0.361 1.781 14
15.407 0.368 1.7130001 12
12.467 0.301 1.739 5
13.143 0.31999999 1.758 8
14.074 0.345 1.802 14
14.11 0.34799999 1.725 13
15.228 0.37799999 1.775 15
15.437 0.38600001 1.712 13
12.487 0.31600001 1.739 5
13.139 0.33399999 1.7539999 8
14.072 0.36000001 1.798 15
14.121 0.36399999 1.722 14
15.236 0.39500001 1.771 17
15.399 0.40099999 1.7029999 16
12.563 0.331 1.745 5
13.122 0.34799999 1.747 7
14.074 0.37599999 1.793 15
14.117 0.37900001 1.716 16
15.233 0.41100001 1.765 19
15.427 0.419 1.7 16
12.621 0.34599999 1.748 6
13.118 0.36199999 1.742 7
14.08 0.38999999 1.788 14
14.128 0.39399999 1.712 14
15.229 0.42699999 1.7589999 18
15.934 0.449 1.749 18
12.645 0.361 1.7460001 6
13.131 0.37599999 1.738 8
14.091 0.40599999 1.784 15
14.136 0.40900001 1.707 13
15.24 0.44299999 1.753 17
16.099001 0.47099999 1.76 15
12.636 0.37400001 1.739 6
13.141 0.38999999 1.733 9
14.08 0.41999999 1.775 14
14.136 0.42399999 1.7 11
15.25 0.45899999 1.747 17
16.143999 0.48899999 1.757 17
12.645 0.38699999 1.734 6
13.141 0.40400001 1.726 9
14.088 0.435 1.7690001 17
14.572 0.45199999 1.745 13
15.253 0.47499999 1.739 17
16.162001 0.50599998 1.75 19
12.654 0.40000001 1.728 5
13.14 0.417 1.7180001 11
14.089 0.449 1.761 14
14.66 0.46900001 1.747 11
15.263 0.491 1.7309999 16
16.166 0.52200001 1.7410001 18
12.701 0.41499999 1.726 5
13.157 0.43099999 1.712 9
14.093 0.46399999 1.753 14
15.212 0.50199997 1.803 15
15.271 0.50599998 1.722 13
16.173 0.53799999 1.7309999 17
12.795 0.43000001 1.7309999 5
13.178 0.44499999 1.706 10
14.084 0.477 1.742 12
15.228 0.51800001 1.795 16
15.272 0.52100003 1.712 11
16.171 0.55400002 1.72 13
13.146 -0.0099999998 1.763 6
14.093 -0.0080000004 1.812 20
14.666 -0.0049999999 1.8049999 9
15.269 -0.0020000001 1.793 7
16.191 0 1.812 18
16.445 0.003 1.75 10
13.147 0.003 1.773 6
14.088 0.0070000002 1.822 12
14.445 0.0099999998 1.788 9
15.258 0.013 1.802 7
15.933 0.017000001 1.794 10
16.254999 0.021 1.7410001 8
13.137 0.017999999 1.781 5
14.084 0.022 1.831 12
14.127 0.025 1.758 12
15.238 0.029999999 1.8099999 8
15.675 0.033 1.775 6
16.204 0.037999999 1.7460001 8
13.11 0.032000002 1.785 7
13.631 0.035999998 1.78 6
14.112 0.039999999 1.765 12
15.215 0.046 1.817 8
15.592 0.050999999 1.775 7
16.198999 0.056000002 1.755 9
13.016 0.046 1.78 7
13.363 0.050000001 1.753 6
14.113 0.056000002 1.773 13
15.229 0.063000001 1.827 13
15.36 0.067000002 1.757 5
16.204 0.072999999 1.7640001 11
12.91 0.059999999 1.773 6
13.156 0.064000003 1.733 5
14.098 0.071000002 1.779 11
15.215 0.079999998 1.8329999 19
15.276 0.082999997 1.755 6
16.195 0.090999998 1.771 13
12.836 0.074000001 1.7690001 5
13.148 0.079000004 1.738 5
13.69 0.085000001 1.734 8
15.22 0.097000003 1.841 18
15.276 0.101 1.763 7
16.174 0.11 1.776 17
12.739 0.088 1.762 5
13.157 0.093999997 1.7460001 5
13.694 0.1 1.74 8
15.212 0.115 1.847 14
15.257 0.118 1.767 8
16.165001 0.12800001 1.7819999 21
12.688 0.103 1.76 5
13.152 0.109 1.75 6
14.095 0.12 1.7970001 11
15.213 0.132 1.853 14
15.278 0.13600001 1.775 11
16.176001 0.147 1.789 22
12.665 0.117 1.761 6
13.151 0.124 1.755 6
14.079 0.13500001 1.8 11
14.686 0.14399999 1.793 10
15.264 0.153 1.779 14
16.141001 0.16500001 1.791 19
12.683 0.132 1.768 7
13.138 0.139 1.757 6
14.056 0.152 1.801 8
14.5 0.15899999 1.775 10
15.234 0.17 1.779 17
16.135 0.183 1.794 16
12.654 0.146 1.767 6
13.135 0.154 1.76 6
14.052 0.168 1.804 6
14.235 0.17299999 1.7460001 7
15.239 0.18799999 1.784 17
16.148001 0.20200001 1.8 17
12.659 0.161 1.771 7
13.129 0.169 1.762 5
14.062 0.184 1.808 6
14.151 0.18799999 1.738 5
15.245 0.206 1.7869999 15
16.052 0.219 1.7920001 17
12.657 0.176 1.773 6
13.129 0.185 1.7640001 5
14.059 0.20100001 1.8099999 7
14.121 0.204 1.737 5
15.22 0.223 1.786 16
15.943 0.236 1.7819999 14
12.625 0.19 1.77 6
13.119 0.2 1.765 5
14.036 0.21600001 1.809 7
14.099 0.22 1.7359999 6
15.221 0.23999999 1.788 17
15.874 0.25400001 1.775 12
12.582 0.204 1.765 5
13.118 0.215 1.766 5
14.074 0.233 1.814 11
14.1 0.236 1.737 6
15.214 0.25799999 1.788 17
15.583 0.26699999 1.744 11
15.317 -0.236 1.789 10
16.188 -0.24699999 1.804 7
16.759001 -0.25299999 1.778 8
18.261999 -0.273 1.837 7
19.233 -0.28400001 1.832 12
21.089001 -0.308 1.896 21
15.111 -0.221 1.786 9
16.179001 -0.234 1.825 8
16.433001 -0.235 1.765 9
18.247999 -0.25799999 1.86 8
18.82 -0.26300001 1.817 11
0 0 0 0
14.959 -0.208 1.788 9
15.741 -0.21600001 1.796 8
16.23 -0.22 1.765 8
18.136999 -0.243 1.873 12
18.343 -0.242 1.795 9
21.087 -0.27500001 1.95 6
14.85 -0.19400001 1.794 9
15.302 -0.198 1.766 15
16.211 -0.207 1.783 9
17.487 -0.22 1.8279999 12
18.263 -0.227 1.8099999 9
19.246 -0.236 1.804 13
14.804 -0.182 1.807 8
15.242 -0.184 1.778 14
16.198 -0.193 1.802 9
16.636 -0.19599999 1.7589999 11
18.257999 -0.211 1.832 10
19.246 -0.22 1.827 16
14.922 -0.171 1.84 8
15.268 -0.17200001 1.8 13
16.188 -0.17900001 1.8200001 8
16.408001 -0.17900001 1.7539999 11
18.261999 -0.19599999 1.854 17
18.785 -0.198 1.8049999 13
14.687 -0.155 1.8279999 9
15.232 -0.15800001 1.813 8
16.127001 -0.16500001 1.832 9
16.275 -0.163 1.7589999 9
18.254 -0.18000001 1.874 20
18.368 -0.177 1.786 13
14.139 -0.13699999 1.777 10
15.226 -0.145 1.83 7
15.696 -0.146 1.801 8
16.209 -0.148 1.77 9
17.534 -0.15700001 1.8200001 14
18.291 -0.16 1.799 15
14.112 -0.123 1.789 12
15.225 -0.13 1.847 7
15.317 -0.12800001 1.774 8
16.177 -0.132 1.784 9
16.823 -0.13500001 1.7640001 12
18.274 -0.14300001 1.817 19
14.105 -0.11 1.803 16
15.206 -0.116 1.8609999 8
15.275 -0.113 1.786 8
16.15 -0.117 1.798 9
16.739 -0.118 1.772 11
18.263 -0.125 1.835 23
14.096 -0.097000003 1.817 16
14.768 -0.097999997 1.822 8
15.268 -0.098999999 1.8 9
16.094999 -0.101 1.808 8
16.495001 -0.101 1.763 10
18.247999 -0.108 1.851 20
14.087 -0.082999997 1.829 16
14.14 -0.079999998 1.758 13
15.257 -0.083999999 1.813 9
15.802 -0.083999999 1.79 6
16.264999 -0.082999997 1.753 9
18.242001 -0.090000004 1.867 21
14.086 -0.068999998 1.842 15
14.126 -0.066 1.7690001 21
15.269 -0.068999998 1.829 13
15.65 -0.068000004 1.7869999 9
16.218 -0.067000002 1.763 9
17.507 -0.068999998 1.808 15
13.605 -0.052999999 1.7920001 9
14.123 -0.052000001 1.7819999 23
15.239 -0.052999999 1.839 9
15.343 -0.050000001 1.765 10
16.223 -0.050000001 1.778 13
16.820999 -0.048999999 1.751 16
13.255 -0.037999999 1.757 7
14.11 -0.037 1.7920001 23
15.219 -0.037 1.849 8
15.27 -0.035 1.77 9
16.212999 -0.034000002 1.79 12
16.813999 -0.032000002 1.7640001 16
13.161 -0.024 1.755 7
14.105 -0.023 1.803 23
15.083 -0.021 1.845 8
15.266 -0.018999999 1.781 7
16.200001 -0.017000001 1.801 16
16.771 -0.014 1.772 14
21.084 -0.48500001 1.9170001 22
21.326 -0.48899999 1.827 13
0 0 0 0
24.167999 -0.551 1.814 14
26.997999 -0.61299998 1.885 24
28.049 -0.63499999 1.812 11
0 0 0 0
21.099001 -0.479 1.845 13
22.202999 -0.50199997 1.825 10
24.101999 -0.54299998 1.852 16
25.059 -0.56300002 1.794 12
27.479 -0.61500001 1.823 19
19.278 -0.43399999 1.822 8
21.093 -0.47299999 1.882 24
21.872 -0.48899999 1.836 14
24.080999 -0.53600001 1.893 19
24.663 -0.54699999 1.809 14
27.021999 -0.597 1.841 20
19.240999 -0.428 1.852 10
21.049999 -0.46599999 1.915 19
21.225 -0.46799999 1.819 12
0 0 0 0
24.167999 -0.52899998 1.8150001 12
27.000999 -0.588 1.886 25
18.771 -0.41100001 1.84 10
0 0 0 0
21.099001 -0.458 1.845 14
22.186001 -0.47999999 1.821 11
24.101999 -0.51899999 1.851 14
25.059 -0.537 1.793 11
18.291 -0.39399999 1.824 7
19.278 -0.41299999 1.821 7
21.084999 -0.44999999 1.88 25
21.781 -0.46200001 1.825 14
24.077999 -0.509 1.89 21
24.681 -0.51899999 1.808 13
18.266001 -0.38600001 1.853 7
19.240999 -0.405 1.85 10
21.056 -0.44100001 1.913 18
21.17 -0.44100001 1.809 11
0 0 0 0
24.191999 -0.498 1.812 12
18.243 -0.37799999 1.881 11
18.726 -0.38600001 1.831 11
0 0 0 0
21.096001 -0.43000001 1.837 12
22.194 -0.44999999 1.816 10
24.099001 -0.48500001 1.844 13
18.111 -0.36700001 1.897 13
18.297001 -0.36899999 1.819 9
19.27 -0.38600001 1.813 8
21.080999 -0.419 1.87 22
21.84 -0.43200001 1.821 14
24.083 -0.47299999 1.881 21
17.365 -0.34299999 1.847 12
18.268999 -0.359 1.845 9
19.239 -0.375 1.841 13
21.049999 -0.40799999 1.901 18
21.233999 -0.40900001 1.804 11
0 0 0 0
16.419001 -0.31600001 1.772 6
18.254 -0.34900001 1.872 10
18.837999 -0.35699999 1.832 14
0 0 0 0
21.1 -0.39500001 1.826 9
22.198999 -0.41299999 1.803 9
16.228001 -0.303 1.777 6
18.224001 -0.338 1.898 10
18.365 -0.338 1.814 10
19.288 -0.352 1.801 7
21.087 -0.382 1.857 14
22.093 -0.398 1.8279999 15
16.194 -0.29300001 1.798 7
0 0 0 0
18.268 -0.32499999 1.832 8
19.23 -0.34 1.824 12
21.077999 -0.36899999 1.887 20
21.6 -0.375 1.819 14
16.172001 -0.28200001 1.819 6
16.59 -0.287 1.777 7
18.257 -0.31299999 1.858 7
19.254999 -0.32800001 1.855 17
0 0 0 0
21.108 -0.35299999 1.808 9
16.167 -0.27200001 1.8430001 6
16.284 -0.271 1.768 5
18.24 -0.301 1.883 7
18.620001 -0.30399999 1.821 11
21.040001 -0.34099999 1.9450001 6
21.082001 -0.338 1.836 15
15.974 -0.257 1.844 6
16.209 -0.259 1.784 6
17.569 -0.278 1.839 7
18.274 -0.28600001 1.813 8
19.266001 -0.29800001 1.808 9
21.099001 -0.324 1.868 23
30.598 -0.65100002 1.84 16
33.272999 -0.70899999 1.8279999 19
36.868 -0.78799999 1.835 22
40.271999 -0.86299998 1.7920001 4
40.473 -0.86900002 1.591 13
41.112999 -0.884 1.404 18
30.063999 -0.65200001 1.867 26
0 0 0 0
36.737999 -0.79900002 1.901 26
33.561001 -0.73100001 1.559 16
39.495998 -0.86199999 1.631 13
41.071999 -0.89899999 1.484 5
30.025 -0.662 1.924 12
31.016001 -0.68400002 1.827 14
33.43 -0.73900002 1.796 10
37.203999 -0.824 1.803 11
38.952 -0.86299998 1.686 12
39.153 -0.86900002 1.492 12
27.673 -0.61900002 1.8279999 13
30.212 -0.676 1.839 20
33.085999 -0.741 1.8430001 19
36.755001 -0.82499999 1.853 28
33.578999 -0.75400001 1.5190001 19
38.681999 -0.87 1.55 16
27.068001 -0.61299998 1.842 17
30.032 -0.68099999 1.888 20
33.058998 -0.75 1.9069999 10
36.722 -0.833 1.924 15
33.595001 -0.76300001 1.586 8
38.523998 -0.87599999 1.619 16
27.007 -0.61799997 1.891 26
28.063 -0.64200002 1.819 9
30.635 -0.70200002 1.827 17
33.152 -0.75999999 1.802 17
36.855999 -0.84500003 1.812 23
38.408001 -0.88099998 1.6900001 2
25.072001 -0.579 1.8049999 12
27.448 -0.634 1.8329999 18
30.083 -0.69499999 1.852 18
33.049 -0.76300001 1.86 22
36.721001 -0.84799999 1.877 27
33.591999 -0.77600002 1.543 19
24.607 -0.57200003 1.819 14
27.032 -0.62800002 1.858 21
30.021 -0.69800001 1.9069999 18
31.084 -0.722 1.8099999 12
33.551998 -0.77899998 1.78 9
37.221001 -0.86500001 1.7819999 11
24.136999 -0.56400001 1.831 15
0 0 0 0
27.858999 -0.65100002 1.824 13
30.436001 -0.70999998 1.831 25
33.092999 -0.77200001 1.819 20
36.771 -0.85699999 1.831 26
24.108 -0.56599998 1.876 18
25.035 -0.58700001 1.817 13
27.162001 -0.63599998 1.83 16
30.044001 -0.70300001 1.865 21
33.046001 -0.773 1.88 17
36.512001 -0.85299999 1.887 21
24.077 -0.56599998 1.92 14
24.414 -0.57300001 1.819 15
27.027 -0.634 1.872 24
30.023001 -0.70300001 1.921 10
30.799999 -0.72100002 1.811 15
33.415001 -0.78100002 1.791 23
22.216999 -0.52200001 1.814 9
24.115 -0.56599998 1.842 16
26.979 -0.63300002 1.921 15
27.624001 -0.64700001 1.8200001 14
30.153999 -0.70499998 1.829 19
33.081001 -0.77200001 1.835 21
22.184999 -0.52100003 1.853 13
24.111 -0.565 1.887 17
24.865 -0.58200002 1.817 13
27.048 -0.63200003 1.832 17
30.037001 -0.69999999 1.878 21
33.068001 -0.76999998 1.896 10
21.502001 -0.50400001 1.836 15
0 0 0 0
24.238001 -0.565 1.816 14
27.002001 -0.62800002 1.8789999 26
28.056999 -0.65200001 1.806 9
30.649 -0.70999998 1.813 17
21.112 -0.49200001 1.842 14
22.212999 -0.51700002 1.821 9
24.122999 -0.56 1.852 17
26.985001 -0.625 1.928 9
27.525 -0.63499999 1.823 15
30.1 -0.69300002 1.836 18
21.09 -0.48899999 1.8789999 25
22.035 -0.509 1.847 13
24.101999 -0.55500001 1.8940001 16
24.705999 -0.56800002 1.8099999 14
27.047001 -0.62 1.84 19
30.045 -0.68699998 1.887 20
54.514999 -0.52899998 1.5779999 26
57.486 -0.56699997 1.3660001 44
57.465 -0.57700002 1.068 41
57.446999 -0.58600003 0.76499999 27
57.504002 -0.59600002 0.46700001 44
57.485001 -0.60500002 0.17 42
50.129002 -0.537 1.546 29
54.514999 -0.59299999 1.399 23
57.483002 -0.634 1.176 33
57.476002 -0.64300001 0.87300003 22
57.499001 -0.65200001 0.57599998 39
57.499001 -0.66100001 0.27900001 46
50.040001 -0.58399999 1.638 29
53.98 -0.63800001 1.487 24
57.466 -0.68800002 1.285 31
57.462002 -0.69599998 0.98199999 37
57.502998 -0.70599997 0.685 17
57.507 -0.71399999 0.38800001 49
49.937 -0.62900001 1.729 24
47.754002 -0.60799998 1.406 18
57.491001 -0.741 1.395 15
57.473999 -0.74900001 1.092 41
57.515999 -0.75800002 0.796 8
57.515999 -0.76599997 0.49900001 36
49.078999 -0.662 1.794 22
50.075001 -0.68199998 1.571 5
0 0 0 0
57.495998 -0.79900002 1.2029999 10
54.638 -0.76700002 0.861 23
54.620998 -0.77399999 0.579 36
47.046001 -0.67500001 1.811 21
50.007 -0.72399998 1.666 18
50.348 -0.736 1.4170001 12
54.556999 -0.80400002 1.248 16
54.583 -0.81199998 0.96700001 13
52.535999 -0.78799999 0.65899998 21
44.516998 -0.67500001 1.8 19
49.734001 -0.76099998 1.7539999 20
47.212002 -0.72799999 1.421 19
0 0 0 0
52.403999 -0.82099998 1.03 13
52.391998 -0.82700002 0.75999999 7
42.938 -0.685 1.8200001 17
48.571999 -0.78100002 1.807 23
46.811001 -0.75700003 1.5 23
50.192001 -0.81800002 1.344 16
50.189999 -0.824 1.084 9
47.426998 -0.78399998 0.77999997 21
41.560001 -0.69400001 1.842 16
45.931 -0.77200001 1.799 17
46.889999 -0.79299998 1.594 18
47.452999 -0.80800003 1.363 17
47.458 -0.81300002 1.118 3
44.715 -0.76999998 0.82200003 20
33.452999 -0.58200002 1.549 17
44.076 -0.77100003 1.812 18
47.313999 -0.833 1.701 18
46.917999 -0.82999998 1.439 17
44.676998 -0.79500002 1.14 29
44.657001 -0.79900002 0.90899998 26
33.466 -0.60399997 1.615 9
42.034 -0.76300001 1.811 16
44.624001 -0.815 1.692 16
44.622002 -0.81900001 1.457 16
44.620998 -0.82300001 1.226 29
44.303001 -0.82099998 0.98900002 21
36.800999 -0.68800002 1.848 28
41.069 -0.77200001 1.85 7
44.018002 -0.83099997 1.756 17
44.326 -0.83999997 1.534 17
43.999001 -0.838 1.296 16
0 0 0 0
36.749001 -0.70899999 1.919 29
33.497002 -0.64899999 1.575 17
43.014 -0.83700001 1.8 12
41.137001 -0.80299997 1.505 13
43.792999 -0.85799998 1.376 5
41.582001 -0.81800002 1.092 13
33.57 -0.66600001 1.819 15
36.900002 -0.73500001 1.808 18
40.311001 -0.80599999 1.767 21
0 0 0 0
41.179001 -0.829 1.375 21
41.334999 -0.83499998 1.1670001 19
33.083 -0.67400002 1.858 23
36.761002 -0.75099999 1.874 31
33.530998 -0.68699998 1.536 18
41.305 -0.84899998 1.675 14
41.097 -0.847 1.454 18
41.243 -0.85299999 1.2460001 25
33.054001 -0.68900001 1.9220001 1
36.717999 -0.76700002 1.9450001 12
37.215 -0.77999997 1.778 2
40.743 -0.85600001 1.732 14
41.176998 -0.86699998 1.538 20
41.174999 -0.86900002 1.325 23
132.66701 1.409 0.19400001 21
144.778 1.503 -0.54900002 8
57.502998 0.58200002 -0.51999998 25
57.442001 0.56699997 -0.82700002 37
57.506001 0.55400002 -1.13 6
42.094002 0.39500001 -1.048 15
171.168 1.564 0.51300001 21
174.172 1.548 -0.38999999 15
57.525002 0.49700001 -0.43099999 1
57.446999 0.48300001 -0.73699999 41
57.464001 0.46799999 -1.039 28
44.778 0.35499999 -1.045 16
188.618 1.448 0.86000001 4
0 0 0 0
176.55099 1.27 -1.044 7
57.467999 0.40000001 -0.64700001 39
57.450001 0.38600001 -0.94800001 40
46.286999 0.29899999 -1.006 12
188.411 1.177 1.158 27
0 0 0 0
172.144 0.99199998 -0.741 19
57.491001 0.31799999 -0.55400002 29
57.425999 0.30399999 -0.85500002 25
57.484001 0.29100001 -1.1569999 9
57.511002 0.278 0.447 14
290.32599 1.334 0.74199998 20
291.39899 1.274 -0.78200001 61
57.543999 0.23800001 -0.461 4
57.435001 0.22400001 -0.75999999 30
57.463001 0.212 -1.061 39
57.494999 0.198 0.54100001 29
290.67899 0.93900001 1.2180001 15
291.55301 0.87800002 -0.30399999 10
171.98199 0.47799999 -1.094 6
57.477001 0.146 -0.66500002 41
57.462002 0.133 -0.96499997 35
57.467999 0.12 0.63700002 24
188.34399 0.35299999 1.1059999 27
0 0 0 0
171.798 0.245 -0.80000001 14
57.507 0.068999998 -0.56699997 25
57.456001 0.056000002 -0.866 42
57.455002 0.044 0.73500001 24
57.507999 0.030999999 0.43599999 15
242.748 0.079000004 0.57700002 10
173.83099 0.018999999 -0.50999999 16
57.556999 -0.0049999999 -0.46900001 5
57.445999 -0.017999999 -0.76700002 30
57.445 -0.029999999 0.833 33
57.495998 -0.041999999 0.53500003 31
189.093 -0.17900001 0.77499998 22
163.258 -0.18799999 -0.199 20
156.26601 -0.213 -1.003 27
57.466 -0.090000004 -0.66799998 28
57.458 -0.102 0.93300003 32
57.478001 -0.114 0.634 27
147.16299 -0.32300001 0.85900003 5
135.614 -0.324 0.071000002 8
132.66499 -0.345 -0.61900002 8
57.495998 -0.161 -0.56699997 22
57.457001 -0.17299999 1.035 33
57.464001 -0.184 0.73500001 35
57.519001 -0.19599999 0.43700001 17
57.537998 -0.208 0.132 5
57.515999 -0.219 -0.16500001 17
57.515999 -0.23 -0.465 25
57.469002 -0.242 1.137 32
57.456001 -0.252 0.83700001 31
57.472 -0.264 0.53899997 40
57.504002 -0.27500001 0.235 32
57.488998 -0.28600001 -0.064000003 35
57.480999 -0.29699999 -0.36199999 40
57.469002 -0.308 1.239 45
57.443001 -0.31900001 0.94 27
57.456001 -0.33000001 0.64200002 50
57.483002 -0.34099999 0.338 44
57.481998 -0.35100001 0.039000001 37
57.479 -0.36199999 -0.25799999 33
57.473999 -0.373 1.3430001 48
57.462002 -0.38299999 1.044 27
57.460999 -0.39399999 0.74699998 44
57.466999 -0.405 0.44299999 44
57.481998 -0.41499999 0.14399999 38
57.473 -0.42500001 -0.153 44
57.459 -0.43599999 1.449 4
57.451 -0.44600001 1.15 27
57.458 -0.45699999 0.852 48
57.476002 -0.46700001 0.54900002 39
57.476002 -0.477 0.25099999 33
57.483002 -0.48699999 -0.046 34
54.518002 -0.47299999 1.476 38
57.477001 -0.50800002 1.258 59
57.459999 -0.51800001 0.95999998 34
57.467999 -0.528 0.65700001 34
57.48 -0.53799999 0.359 38
57.48 -0.54799998 0.061999999 34
0 0 0 0
27.451 1.01 -0.66100001 16
27.400999 1 -0.80800003 8
27.441 0.99400002 -0.95899999 10
24.666 0.88700002 -0.99400002 11
22.174 0.79100001 -1.013 10
29.635 1.046 -0.52499998 24
29.636 1.038 -0.68400002 25
29.66 1.031 -0.84399998 16
29.865999 1.03 -1.013 1
27.025999 0.92400002 -1.062 1
0 0 0 0
32.596001 1.094 -0.54400003 9
32.581001 1.084 -0.71899998 9
31.881001 1.052 -0.87400001 15
30.08 0.98500001 -0.98900002 10
27.094 0.87900001 -1.036 12
24.077 0.77499998 -1.049 11
32.648998 1.039 -0.50999999 24
32.726002 1.0319999 -0.68599999 23
32.952999 1.03 -0.86699998 19
30.634001 0.949 -0.97299999 10
27.606001 0.84799999 -1.025 10
24.429001 0.74299997 -1.0369999 15
0 0 0 0
35.653 1.063 -0.708 27
35.758999 1.056 -0.90100002 20
33.021 0.96499997 -1.011 12
28.059 0.81300002 -1.0089999 10
24.836 0.713 -1.026 12
36.556 1.0369999 -0.48899999 13
37.639999 1.057 -0.704 13
37.491001 1.043 -0.90100002 13
33.25 0.91600001 -0.98000002 10
30.045 0.81900001 -1.046 11
27.034 0.73000002 -1.085 8
38.650002 1.03 -0.47099999 10
0 0 0 0
40.299999 1.052 -0.92000002 14
36.743999 0.949 -1.038 25
30.472 0.77899998 -1.023 7
27.156 0.68599999 -1.056 13
0 0 0 0
43.095001 1.064 -0.70200002 15
42.568001 1.039 -0.91900003 16
36.824001 0.889 -0.995 25
31.047001 0.741 -1.0039999 13
27.652 0.653 -1.041 12
46.771 1.089 -0.454 20
47.419998 1.091 -0.71200001 27
45.098999 1.026 -0.917 20
0 0 0 0
33.147999 0.736 -1.029 12
30.055 0.65899998 -1.0930001 9
52.445 1.135 -0.442 5
52.464001 1.1210001 -0.72000003 22
0 0 0 0
0 0 0 0
36.743999 0.75599998 -1.0930001 20
30.184999 0.61299998 -1.058 13
57.425999 1.15 -0.40900001 16
57.445999 1.135 -0.71399999 36
57.445 1.12 -1.018 8
42.063 0.80900002 -0.972 15
36.773998 0.69800001 -1.045 26
30.798 0.57599998 -1.038 14
57.476002 1.058 -0.33199999 50
57.459 1.0420001 -0.63599998 38
57.456001 1.027 -0.94 30
44.798 0.78899997 -0.97399998 19
0 0 0 0
33.125 0.56599998 -1.071 9
69.667 1.1720001 -0.30700001 27
57.483002 0.95200002 -0.55599999 45
57.448002 0.93599999 -0.86000001 41
47.115002 0.75599998 -0.95899999 20
0 0 0 0
36.763 0.57099998 -1.136 2
78.884003 1.2029999 -0.236 33
57.518002 0.861 -0.47499999 16
57.445999 0.84600002 -0.77700001 43
57.480999 0.83200002 -1.087 5
42.028999 0.597 -1.016 14
36.763 0.51300001 -1.0829999 28
90.845001 1.244 -0.141 8
98.675003 1.326 -0.67199999 32
57.446999 0.75700003 -0.69300002 40
57.462002 0.74199998 -1.002 27
44.842999 0.56800002 -1.018 16
0 0 0 0
112.16 1.362 -0.0060000001 20
114.643 1.363 -0.60900003 10
57.470001 0.66799998 -0.60699999 43
57.438 0.653 -0.91500002 40
0 0 0 0
40.813 0.44400001 -1.079 13
14.54 0.95899999 -0.42699999 16
14.597 0.95899999 -0.509 17
14.596 0.95499998 -0.58899999 18
14.605 0.95200002 -0.67199999 18
14.632 0.94999999 -0.75300002 16
14.704 0.95099998 -0.838 14
14.615 0.93800002 -0.42399999 20
14.63 0.935 -0.505 16
14.751 0.93900001 -0.58999997 15
14.811 0.93900001 -0.67500001 11
14.933 0.94300002 -0.76300001 11
14.988 0.94199997 -0.84799999 15
0 0 0 0
15.421 0.958 -0.52600002 12
16.15 0.99900001 -0.639 17
16.179001 0.99599999 -0.73100001 19
16.162001 0.991 -0.81900001 13
16.15 0.986 -0.90700001 14
16.186001 0.98000002 -0.456 16
16.190001 0.97600001 -0.54500002 19
16.197001 0.972 -0.634 20
16.183001 0.96700001 -0.72299999 22
16.204 0.96399999 -0.81300002 13
16.146 0.95599997 -0.89899999 10
16.219 0.95300001 -0.449 16
16.215 0.94800001 -0.53799999 19
16.223 0.94400001 -0.62599999 21
16.205999 0.93900001 -0.71600002 21
16.789 0.96899998 -0.83399999 19
16.184 0.92900002 -0.89200002 12
0 0 0 0
16.878 0.95700002 -0.551 16
17.613001 0.99400002 -0.671 20
17.618 0.98900002 -0.76899999 23
17.743 0.991 -0.87099999 12
0 0 0 0
17.632999 0.972 -0.46900001 15
17.653 0.96799999 -0.56599998 17
17.874001 0.97600001 -0.67000002 13
17.996 0.977 -0.77499998 14
18.705999 1.011 -0.90700001 10
18.087999 0.97299999 -0.97600001 18
18.379999 0.98000002 -0.47799999 14
18.660999 0.98900002 -0.58600003 11
19.253 1.015 -0.70999998 10
19.257999 1.011 -0.81699997 10
19.202999 1.003 -0.91900003 10
18.298 0.94999999 -0.97600001 20
19.266001 0.99199998 -0.48800001 16
19.285 0.98699999 -0.59299999 16
19.813999 1.0089999 -0.71700001 14
0 0 0 0
19.688999 0.99199998 -0.92900002 13
18.541 0.92900002 -0.97600001 13
20.608999 1.023 -0.50800002 12
20.622999 1.018 -0.62 8
20.615 1.012 -0.73199999 9
20.604 1.006 -0.84500003 11
20.612 1.001 -0.958 6
18.858 0.91000003 -0.97899997 9
20.618999 0.986 -0.493 10
20.642 0.98199999 -0.60600001 15
20.737 0.98100001 -0.72100002 11
20.653999 0.97100002 -0.83200002 12
20.833 0.97399998 -0.95200002 10
19.25 0.89399999 -0.98400003 7
21.347 0.98299998 -0.49399999 16
21.591999 0.98799998 -0.61699998 12
22.198999 1.0089999 -0.75400001 10
21.566999 0.97399998 -0.85100001 11
21.672001 0.97299999 -0.97299999 11
0 0 0 0
0 0 0 0
22.951 1.008 -0.63700002 11
23.615 1.031 -0.78299999 10
23.608999 1.024 -0.91299999 11
0 0 0 0
21.084 0.903 -1.043 12
23.608999 1.002 -0.50800002 17
23.663 0.99699998 -0.63599998 12
23.660999 0.99000001 -0.764 10
23.784 0.98900002 -0.89899999 9
23.441999 0.96799999 -1.012 12
21.104 0.866 -1.025 8
24.313999 0.98799998 -0.50099999 5
24.594999 0.99199998 -0.639 7
24.099001 0.96499997 -0.75599998 5
25.047001 0.99699998 -0.92299998 8
23.914 0.94499999 -1.011 14
21.514999 0.84399998 -1.025 14
26.608999 1.033 -0.52399999 20
26.615999 1.026 -0.667 11
26.659 1.02 -0.81099999 11
26.683001 1.0140001 -0.95899999 11
24.247999 0.91500002 -1.002 12
21.99 0.824 -1.027 13
20.615999 1.918 -0.61500001 24
19.872999 1.844 -0.704 20
18.747 1.7359999 -0.76899999 17
17.193001 1.589 -0.80400002 16
15.68 1.446 -0.82099998 11
14.091 1.2970001 -0.81699997 5
20.629999 1.887 -0.62099999 22
19.583 1.7869999 -0.699 19
18.773001 1.709 -0.77499998 17
18.162001 1.65 -0.85399997 0
16.132 1.462 -0.84899998 19
11.657 1.054 -0.67900002 5
20.622 1.853 -0.625 15
20.382999 1.827 -0.73199999 14
19.252001 1.722 -0.79900002 20
16.045 1.431 -0.75700003 8
16.139999 1.437 -0.852 9
11.647 1.034 -0.68000001 6
24.006001 2.119 -0.73199999 0
20.781 1.829 -0.75 15
18.997999 1.668 -0.792 12
16.135 1.413 -0.764 2
11.606 1.0140001 -0.61500001 8
11.619 1.013 -0.68000001 8
0 0 0 0
21.048 1.819 -0.76200002 7
19.250999 1.659 -0.80500001 1
11.609 0.99800003 -0.551 10
11.606 0.995 -0.616 8
11.613 0.99299997 -0.68099999 7
11.634 0.98900002 -0.35800001 9
11.604 0.98299998 -0.421 10
11.618 0.98199999 -0.48699999 8
11.603 0.97799999 -0.55199999 9
11.623 0.977 -0.61799997 7
11.623 0.97500002 -0.68300003 6
11.618 0.96799999 -0.35800001 11
11.61 0.96499997 -0.42199999 9
11.612 0.96200001 -0.48699999 9
11.62 0.95999998 -0.55400002 8
11.622 0.958 -0.61799997 7
11.628 0.95599997 -0.68400002 6
11.61 0.94800001 -0.35800001 10
11.609 0.94499999 -0.42300001 10
11.615 0.94300002 -0.48800001 8
11.637 0.94199997 -0.55400002 7
11.645 0.94 -0.62 6
11.729 0.94400001 -0.69 6
11.617 0.92900002 -0.35800001 10
11.651 0.92900002 -0.42399999 8
11.676 0.92799997 -0.49000001 7
11.695 0.92699999 -0.55699998 6
0 0 0 0
11.821 0.93199998 -0.69499999 9
11.675 0.91399997 -0.36000001 7
0 0 0 0
12.378 0.963 -0.51899999 8
12.37 0.95899999 -0.588 8
13.075 1.011 -0.69400001 12
13.07 1.007 -0.76700002 12
13.079 1.001 -0.40200001 11
13.054 0.99599999 -0.47299999 14
13.07 0.99400002 -0.546 14
13.068 0.991 -0.62 13
13.078 0.98799998 -0.69300002 11
13.058 0.98400003 -0.76499999 14
13.086 0.97899997 -0.40000001 16
13.066 0.97399998 -0.472 17
13.065 0.97100002 -0.54400003 14
13.064 0.96799999 -0.61799997 12
13.071 0.96499997 -0.69099998 8
13.075 0.96200001 -0.764 14
13.088 0.95599997 -0.398 14
13.078 0.95200002 -0.47 14
13.078 0.949 -0.54299998 13
13.08 0.94599998 -0.616 11
13.088 0.94300002 -0.68900001 8
13.105 0.94099998 -0.76300001 12
13.102 0.93400002 -0.396 11
13.116 0.93199998 -0.46900001 11
13.165 0.93199998 -0.54299998 13
13.291 0.93699998 -0.62300003 13
13.855 0.97399998 -0.72600001 13
13.82 0.96799999 -0.801 14
13.495 0.93800002 -0.405 10
13.544 0.93800002 -0.48100001 10
14.008 0.96700001 -0.57499999 15
14.09 0.96899998 -0.65700001 18
14.111 0.96700001 -0.736 16
14.205 0.97000003 -0.81900001 20
14.173 0.95999998 -0.421 10
14.311 0.96600002 -0.50400001 13
14.268 0.95899999 -0.58099997 17
14.33 0.95999998 -0.66399997 18
14.381 0.95999998 -0.74599999 15
14.594 0.97000003 -0.83700001 20
21.033001 2.398 -0.442 7
20.701 2.3570001 -0.55299997 10
18.361 2.0880001 -0.59500003 13
17.704 2.0120001 -0.676 15
16.201 1.839 -0.71100003 18
15.255 1.73 -0.75599998 14
21.17 2.391 -0.46200001 0
17.653 1.9910001 -0.48500001 19
17.662001 1.99 -0.58600003 14
17.263 1.943 -0.67299998 13
16.187 1.8200001 -0.72299999 14
15.254 1.7130001 -0.76800001 10
17.82 1.993 -0.40200001 15
17.594999 1.965 -0.49700001 23
17.58 1.961 -0.59600002 13
17.108999 1.906 -0.67900002 12
16.174 1.8 -0.73400003 7
15.243 1.694 -0.77899998 4
17.608999 1.949 -0.41 22
17.599001 1.9450001 -0.50999999 17
17.568001 1.939 -0.60799998 7
16.962 1.87 -0.685 10
16.188999 1.783 -0.74599999 3
8.6190004 0.94800001 -0.44600001 3
17.605 1.928 -0.42199999 17
17.579 1.923 -0.52100003 10
17.586 1.921 -0.62099999 4
8.5959997 0.93699998 -0.35299999 2
8.6020002 0.93699998 -0.40200001 2
8.6210003 0.93800002 -0.45199999 3
17.587999 1.905 -0.433 10
17.582001 1.901 -0.53299999 3
8.6110001 0.93000001 -0.30899999 2
8.5950003 0.92699999 -0.359 2
8.6040001 0.926 -0.40799999 2
8.6160002 0.92699999 -0.45699999 3
17.6 1.8839999 -0.44499999 1
8.6190004 0.921 -0.266 4
8.6059999 0.91799998 -0.315 2
8.599 0.91600001 -0.36399999 3
8.6199999 0.917 -0.414 3
8.6210003 0.91600001 -0.463 3
8.6190004 0.912 -0.223 5
8.6199999 0.91000003 -0.27200001 3
8.6040001 0.90700001 -0.31999999 2
8.6009998 0.90600002 -0.36899999 2
8.618 0.90600002 -0.419 3
8.6309996 0.90600002 -0.46799999 3
8.6210003 0.89999998 -0.228 4
8.6129999 0.898 -0.27599999 3
8.6070004 0.89600003 -0.32499999 3
8.6049995 0.89399999 -0.37400001 3
8.6289997 0.89600003 -0.42399999 3
8.6800003 0.89999998 -0.47600001 3
8.6190004 0.889 -0.23199999 4
8.6350002 0.889 -0.28099999 3
8.6110001 0.88499999 -0.329 3
8.6450005 0.88700002 -0.38 3
8.684 0.88999999 -0.43099999 3
14.586 1.492 -0.80699998 5
8.6149998 0.87699997 -0.237 4
8.6260004 0.87599999 -0.28600001 3
8.6619997 0.87800002 -0.336 3
16.746 1.696 -0.74599999 0
16.158001 1.633 -0.81099999 7
14.568 1.47 -0.81300002 7
8.6499996 0.86799997 -0.242 4
8.6920004 0.87099999 -0.292 3
18.707001 1.8710001 -0.73400003 3
16.700001 1.668 -0.75099999 6
16.148001 1.609 -0.81699997 9
14.535 1.446 -0.81800002 14
8.7019997 0.861 -0.24699999 3
0 0 0 0
18.664 1.84 -0.74000001 5
16.554001 1.6289999 -0.75199997 12
16.165001 1.5880001 -0.82499999 16
14.729 1.444 -0.83499998 14
20.832001 2.0309999 -0.60000002 3
20.547001 1.999 -0.70700002 8
18.577 1.804 -0.74400002 11
16.556 1.605 -0.75800002 17
16.138 1.561 -0.82999998 15
14.881 1.437 -0.84899998 18
20.691999 1.987 -0.60399997 9
20.566999 1.971 -0.71600002 18
18.652 1.784 -0.75400001 15
16.312 1.557 -0.75300002 18
15.463 1.473 -0.80000001 11
14.974 1.424 -0.86000001 22
20.628 1.95 -0.60900003 22
20.607 1.944 -0.72399998 24
18.695 1.76 -0.76200002 15
18.162001 1.706 -0.84399998 8
15.291 1.434 -0.796 8
14.871 1.391 -0.85799998 16
14.613 1.834 -0.082999997 11
14.602 1.832 -0.167 13
14.598 1.831 -0.25 18
14.619 1.8329999 -0.336 15
14.605 1.831 -0.419 13
14.604 1.83 -0.50300002 16
14.607 1.8279999 -0.098999999 11
14.594 1.825 -0.182 13
14.605 1.826 -0.266 17
14.594 1.824 -0.35100001 17
14.61 1.826 -0.435 11
14.618 1.826 -0.51899999 14
14.615 1.822 -0.114 11
14.594 1.819 -0.198 14
14.618 1.821 -0.28200001 13
14.601 1.818 -0.36700001 16
14.624 1.8200001 -0.45100001 12
14.643 1.822 -0.53600001 14
14.619 1.816 -0.13 12
14.611 1.814 -0.214 13
14.637 1.816 -0.29800001 11
14.628 1.814 -0.38299999 12
14.648 1.816 -0.46700001 12
14.643 1.8150001 -0.551 12
14.629 1.809 -0.145 13
14.645 1.8099999 -0.229 12
14.658 1.811 -0.31299999 9
14.675 1.812 -0.39899999 9
14.689 1.813 -0.484 10
14.657 1.808 -0.56699997 11
14.662 1.8049999 -0.161 11
14.675 1.8049999 -0.245 10
14.687 1.806 -0.329 10
14.718 1.809 -0.41600001 7
14.777 1.8150001 -0.50199997 11
14.679 1.802 -0.583 12
14.681 1.798 -0.176 8
14.717 1.801 -0.26100001 9
14.732 1.802 -0.345 8
14.764 1.8049999 -0.43200001 9
14.794 1.808 -0.51700002 9
0 0 0 0
15.289 1.862 -0.198 10
15.262 1.858 -0.285 10
15.313 1.863 -0.37400001 11
14.868 1.808 -0.449 10
0 0 0 0
15.431 1.874 -0.64300001 10
15.418 1.867 -0.215 12
15.428 1.867 -0.303 11
15.503 1.875 -0.39399999 11
0 0 0 0
16.134001 1.948 -0.59600002 15
16.135 1.948 -0.68800002 13
16.209999 1.951 -0.242 15
15.549 1.87 -0.32100001 10
16.171 1.943 -0.426 11
15.551 1.867 -0.5 9
16.141001 1.937 -0.611 19
16.145 1.936 -0.704 15
16.219 1.939 -0.257 17
16.268999 1.944 -0.35100001 15
16.299 1.946 -0.44499999 11
16.242001 1.937 -0.537 14
16.150999 1.925 -0.62699997 17
16.125999 1.921 -0.71799999 11
16.322001 1.938 -0.27399999 18
16.403999 1.946 -0.36899999 12
16.440001 1.949 -0.463 13
16.239 1.923 -0.55199999 18
16.18 1.915 -0.64200002 16
15.961 1.888 -0.72500002 13
16.643999 1.962 -0.294 18
16.750999 1.972 -0.39199999 14
16.780001 1.974 -0.48800001 19
16.254 1.911 -0.56699997 22
16.239 1.9069999 -0.65899998 16
15.662 1.8380001 -0.72500002 15
16.796 1.964 -0.31200001 18
16.774 1.96 -0.40700001 12
16.795 1.96 -0.50300002 17
16.257 1.896 -0.58099997 19
16.354 1.906 -0.67799997 21
15.513 1.806 -0.73199999 14
16.796 1.949 -0.32600001 17
20.674 2.3959999 -0.51899999 5
16.785999 1.943 -0.51700002 11
0 0 0 0
16.371 1.892 -0.69199997 20
15.336 1.771 -0.736 15
20.91 2.405 -0.42300001 6
20.690001 2.3770001 -0.53600001 11
19.018999 2.1830001 -0.60100001 11
18.145 2.0799999 -0.67900002 18
16.240999 1.86 -0.69999999 18
15.26 1.7460001 -0.745 18
14.594 1.8329999 0.18000001 14
14.594 1.8329999 0.096000001 15
14.595 1.834 0.012 15
14.604 1.836 -0.071999997 14
14.605 1.837 -0.155 14
14.595 1.836 -0.23899999 18
14.6 1.839 0.163 13
14.59 1.8380001 0.079999998 17
14.596 1.839 -0.003 15
14.602 1.841 -0.088 12
14.604 1.841 -0.17200001 14
14.606 1.842 -0.25600001 19
14.598 1.8430001 0.147 13
14.595 1.8430001 0.063000001 17
14.599 1.844 -0.018999999 15
14.599 1.844 -0.105 11
14.6 1.845 -0.18799999 14
14.6 1.846 -0.27200001 18
14.602 1.847 0.13 16
14.594 1.846 0.046999998 14
14.595 1.847 -0.035999998 14
14.593 1.847 -0.121 13
14.588 1.847 -0.205 16
14.606 1.85 -0.289 14
14.608 1.851 0.114 16
14.595 1.849 0.029999999 15
14.593 1.849 -0.052999999 16
14.592 1.85 -0.138 14
14.584 1.849 -0.221 18
14.606 1.852 -0.30599999 13
14.601 1.852 0.097000003 15
14.598 1.852 0.013 15
14.601 1.852 -0.068999998 17
14.594 1.852 -0.154 12
14.586 1.851 -0.23800001 19
14.603 1.854 -0.322 15
14.605 1.854 0.081 16
14.597 1.853 -0.0020000001 15
14.6 1.854 -0.086000003 13
14.604 1.855 -0.171 12
14.596 1.854 -0.255 19
14.601 1.855 -0.33899999 19
14.602 1.855 0.064000003 15
14.605 1.855 -0.018999999 15
14.605 1.855 -0.103 12
14.588 1.853 -0.18799999 13
14.593 1.854 -0.27200001 17
14.607 1.8559999 -0.35600001 20
14.603 1.855 0.046999998 15
14.597 1.854 -0.035999998 13
14.603 1.855 -0.119 13
14.591 1.854 -0.205 16
14.605 1.8559999 -0.289 14
14.607 1.8559999 -0.37200001 20
14.601 1.855 0.029999999 16
14.602 1.855 -0.052000001 16
14.61 1.8559999 -0.13600001 13
14.584 1.852 -0.221 18
14.612 1.8559999 -0.30500001 12
14.601 1.855 -0.389 20
14.603 1.854 0.014 16
14.599 1.853 -0.068999998 17
14.605 1.854 -0.153 12
14.584 1.851 -0.23800001 20
14.607 1.854 -0.322 15
14.59 1.852 -0.405 18
14.6 1.852 -0.0020000001 16
14.608 1.852 -0.086000003 13
14.604 1.852 -0.169 12
14.585 1.849 -0.25400001 18
14.597 1.851 -0.338 18
14.595 1.85 -0.42199999 20
14.609 1.85 -0.017999999 15
14.6 1.849 -0.102 12
14.6 1.849 -0.186 14
14.59 1.847 -0.271 17
14.59 1.847 -0.354 19
14.593 1.847 -0.43799999 17
14.602 1.846 -0.035 15
14.603 1.846 -0.119 12
14.597 1.845 -0.20200001 17
14.604 1.845 -0.287 13
14.594 1.844 -0.37099999 19
14.587 1.8430001 -0.454 18
14.603 1.8430001 -0.050999999 17
14.605 1.842 -0.13500001 13
14.597 1.841 -0.21799999 17
14.611 1.842 -0.30399999 12
14.595 1.84 -0.38699999 16
14.596 1.84 -0.47099999 17
14.606 1.839 -0.067000002 15
14.601 1.837 -0.15099999 13
14.596 1.836 -0.234 17
14.609 1.837 -0.31999999 12
14.598 1.835 -0.403 15
14.59 1.834 -0.486 17
21.540001 2.4560001 0.62 8
21.52 2.4560001 0.49599999 8
21.539 2.461 0.37400001 7
21.525 2.4619999 0.249 8
21.514 2.4630001 0.127 9
21.488001 2.4630001 0.0040000002 8
16.775999 1.9299999 0.46799999 8
16.767 1.931 0.37200001 10
16.761 1.932 0.27599999 12
21.517 2.483 0.23 1
21.493 2.483 0.107 5
16.789 1.942 -0.011 21
16.764 1.9450001 0.45199999 11
16.771 1.948 0.35600001 14
16.764999 1.949 0.26100001 17
16.735001 1.948 0.163 11
16.698999 1.9450001 0.068000004 17
16.474001 1.921 -0.026000001 22
16.468 1.927 0.428 11
16.410999 1.9220001 0.333 13
16.643 1.951 0.243 17
16.503 1.936 0.145 15
16.406 1.927 0.050999999 23
16.327 1.919 -0.041999999 16
16.341999 1.927 0.40900001 12
16.35 1.9299999 0.31600001 14
16.398001 1.937 0.223 15
16.267 1.923 0.127 17
16.224001 1.92 0.034000002 22
16.237 1.923 -0.057 13
16.216 1.927 0.38999999 13
16.205 1.927 0.29699999 15
16.215 1.929 0.205 14
0 0 0 0
16.212 1.933 0.017999999 18
16.211 1.934 -0.074000001 14
0 0 0 0
15.393 1.8430001 0.26699999 12
0 0 0 0
15.414 1.848 0.090000004 12
15.505 1.8609999 0.0020000001 12
16.194 1.9450001 -0.090000004 12
15.205 1.831 0.33500001 12
15.204 1.832 0.248 10
0 0 0 0
15.259 1.842 0.072999999 11
15.372 1.857 -0.013 11
0 0 0 0
14.72 1.784 0.30899999 11
14.692 1.781 0.22499999 9
14.696 1.783 0.141 9
14.701 1.785 0.055 9
14.905 1.811 -0.028000001 9
14.773 1.7970001 -0.112 9
14.667 1.788 0.29300001 13
14.637 1.785 0.20900001 9
14.65 1.788 0.125 8
14.641 1.788 0.039999999 8
14.682 1.794 -0.043000001 8
14.699 1.798 -0.127 9
14.628 1.793 0.27700001 12
14.605 1.791 0.193 9
14.614 1.793 0.109 8
14.648 1.798 0.024 11
14.668 1.802 -0.059 9
14.649 1.801 -0.142 11
14.609 1.799 0.26100001 13
14.606 1.8 0.177 12
14.6 1.8 0.093999997 9
14.634 1.8049999 0.0089999996 12
14.623 1.8049999 -0.074000001 10
14.638 1.808 -0.15800001 12
14.605 1.807 0.245 14
14.601 1.808 0.161 12
14.609 1.809 0.078000002 11
14.612 1.811 -0.0060000001 13
14.62 1.813 -0.090000004 10
14.619 1.814 -0.17399999 11
14.6 1.814 0.229 13
14.592 1.814 0.145 13
14.598 1.816 0.061999999 16
14.602 1.817 -0.023 14
14.616 1.8200001 -0.106 11
14.609 1.8200001 -0.19 13
14.603 1.822 0.213 13
14.598 1.822 0.12899999 13
14.59 1.822 0.045000002 14
14.605 1.824 -0.039000001 14
14.608 1.826 -0.123 11
14.603 1.826 -0.206 16
14.603 1.8279999 0.19599999 13
14.603 1.829 0.113 13
14.602 1.829 0.028999999 15
14.606 1.831 -0.055 15
14.606 1.831 -0.139 12
14.603 1.832 -0.223 17
8.6529999 0.80000001 0.34200001 3
8.632 0.79900002 0.29300001 3
8.6479998 0.80299997 0.245 3
8.6280003 0.80299997 0.19499999 3
8.6280003 0.80400002 0.146 3
8.6540003 0.80900002 0.097999997 3
8.6199999 0.81 0.33700001 4
8.6190004 0.81199998 0.289 3
8.6160002 0.81300002 0.23999999 4
8.6070004 0.81400001 0.19 3
8.6140003 0.81699997 0.142 3
8.6210003 0.81900001 0.093999997 3
8.6169996 0.82300001 0.333 4
8.618 0.82499999 0.28400001 4
8.6160002 0.82700002 0.236 4
8.6000004 0.82700002 0.186 3
8.6099997 0.82999998 0.138 3
8.6210003 0.83200002 0.089000002 4
8.6309996 0.838 0.329 4
8.6190004 0.838 0.28 4
8.6269999 0.84100002 0.23199999 4
8.6099997 0.84100002 0.182 3
8.6199999 0.84399998 0.133 3
8.6210003 0.84500003 0.085000001 4
8.6199999 0.85000002 0.324 4
8.618 0.85100001 0.27500001 4
8.6230001 0.85299999 0.227 4
8.585 0.85100001 0.176 3
8.6140003 0.85600001 0.12800001 4
8.6210003 0.85799998 0.079999998 4
8.6280003 0.86299998 0.31900001 3
17.834 1.788 0.55900002 1
0 0 0 0
19.271 1.939 0.384 3
19.268 1.943 0.27599999 1
8.6210003 0.87099999 0.074000001 4
17.621 1.789 0.64099997 6
17.649 1.795 0.54299998 6
17.66 1.799 0.44299999 6
17.687 1.8049999 0.34200001 7
17.674999 1.807 0.242 6
17.707001 1.814 0.142 5
17.608999 1.813 0.63 12
17.604 1.8150001 0.52999997 13
17.606001 1.818 0.43000001 13
17.625 1.823 0.329 17
17.608999 1.825 0.229 11
17.608999 1.8279999 0.13 10
17.618 1.8380001 0.61799997 18
17.624001 1.841 0.51899999 18
17.615999 1.8430001 0.419 18
17.607 1.845 0.317 21
17.613001 1.849 0.21699999 17
17.612 1.852 0.117 18
17.620001 1.8609999 0.60600001 18
17.620001 1.864 0.50599998 19
17.617001 1.867 0.40599999 18
17.618999 1.87 0.30500001 18
17.611 1.872 0.205 21
17.624001 1.876 0.105 21
17.620001 1.8839999 0.59299999 17
17.618999 1.887 0.493 17
17.613001 1.8890001 0.39300001 17
17.618999 1.892 0.292 18
17.615 1.895 0.192 19
17.614 1.898 0.092 20
17.888 1.936 0.58899999 14
17.858 1.9349999 0.486 15
17.886 1.941 0.38600001 16
18.065001 1.9630001 0.285 21
18.016001 1.961 0.182 19
17.709 1.9299999 0.079000004 16
18.24 1.9960001 0.58600003 12
18.256001 2.0009999 0.48300001 16
18.249001 2.003 0.37900001 18
18.239 2.0039999 0.273 22
18.226999 2.006 0.17 19
18.209 2.007 0.066 15
18.263 2.0209999 0.57200003 10
18.254 2.0220001 0.46799999 13
18.273001 2.027 0.36500001 21
18.271999 2.029 0.259 20
18.273001 2.0320001 0.155 17
18.252001 2.033 0.050999999 14
21.594999 2.414 0.65899998 12
21.759001 2.4349999 0.54000002 12
22.132 2.48 0.42300001 12
21.711 2.4360001 0.28999999 9
21.547001 2.421 0.16500001 7
21.525 2.4219999 0.041999999 8
21.549 2.4330001 0.639 17
21.565001 2.438 0.51700002 16
21.743 2.461 0.39700001 14
21.539 2.441 0.26800001 13
21.523001 2.4419999 0.146 11
21.499001 2.4419999 0.023 16
14.506 0.92900002 0.60699999 13
14.415 0.92699999 0.52399999 14
14.334 0.92500001 0.442 9
14.322 0.92799997 0.361 10
14.354 0.93400002 0.28299999 11
14.418 0.94300002 0.204 11
13.53 0.89200002 0.56800002 11
13.584 0.89899999 0.49599999 10
13.443 0.89300001 0.41600001 10
